-1658.319075 -1063.865125 -36.011240
-1659.345450 -1065.575749 -35.868688
-1660.371824 -1067.286373 -35.726136
-1661.398198 -1068.996997 -35.583584
-1662.424573 -1070.707621 -35.441032
-1663.450947 -1072.418245 -35.298480
-1664.477322 -1074.128869 -35.155928
-1665.503696 -1075.839493 -35.013376
-1666.530070 -1077.550117 -34.870824
-1667.556445 -1079.260741 -34.728272
-1668.582819 -1080.971365 -34.585720
-1669.609194 -1082.681989 -34.443168
-1670.635568 -1084.392613 -34.300616
-1671.661942 -1086.103237 -34.158064
-1672.688317 -1087.813861 -34.015512
-1673.714691 -1089.524485 -33.872960
-1674.741066 -1091.235109 -33.730408
-1675.767440 -1092.945733 -33.587856
-1676.793814 -1094.656357 -33.445304
-1677.820189 -1096.366981 -33.302752
-1678.846563 -1098.077605 -33.160200
-1679.872938 -1099.788230 -33.017648
-1680.899312 -1101.498854 -32.875096
-1681.925687 -1103.209478 -32.732544
-1682.952061 -1104.920102 -32.589992
-1683.978435 -1106.630726 -32.447440
-1685.004810 -1108.341350 -32.304888
-1686.031184 -1110.051974 -32.162336
-1687.057559 -1111.762598 -32.019784
-1688.083933 -1113.473222 -31.877232
-1689.110307 -1115.183846 -31.734680
-1690.136682 -1116.894470 -31.592128
-1691.163056 -1118.605094 -31.449576
-1692.189431 -1120.315718 -31.307024
-1693.215805 -1122.026342 -31.164472
-1694.242179 -1123.736966 -31.021920
-1695.268554 -1125.447590 -30.879368
-1696.294928 -1127.158214 -30.736816
-1697.321303 -1128.868838 -30.594264
-1698.347677 -1130.579462 -30.451712
-1699.374051 -1132.290086 -30.309160
-1700.400426 -1134.000710 -30.166608
-1701.426800 -1135.711334 -30.024056
-1702.453175 -1137.421958 -29.881504
-1703.479549 -1139.132582 -29.738952
-1704.505923 -1140.843206 -29.596400
-1705.532298 -1142.553830 -29.453848
-1706.558672 -1144.264454 -29.311296
-1707.585047 -1145.975078 -29.168744
-1708.611421 -1147.685702 -29.026192
-1709.637795 -1149.396326 -28.883640
-1710.664170 -1151.106950 -28.741088
-1711.690544 -1152.817574 -28.598536
-1712.716919 -1154.528198 -28.455984
-1713.743293 -1156.238822 -28.313432
-1714.769668 -1157.949446 -28.170880
-1716.000000 -1160.000000 -28.000000
-1714.042627 -1160.015785 -28.410417
-1712.085254 -1160.031571 -28.820834
-1710.127881 -1160.047356 -29.231251
-1708.170508 -1160.063141 -29.641668
-1706.213135 -1160.078926 -30.052085
-1704.255762 -1160.094712 -30.462501
-1702.298389 -1160.110497 -30.872918
-1700.341017 -1160.126282 -31.283335
-1698.383644 -1160.142067 -31.693752
-1696.426271 -1160.157853 -32.104169
-1694.468898 -1160.173638 -32.514586
-1692.511525 -1160.189423 -32.925003
-1690.554152 -1160.205208 -33.335420
-1688.596779 -1160.220994 -33.745837
-1686.639406 -1160.236779 -34.156254
-1684.682033 -1160.252564 -34.566670
-1682.724660 -1160.268350 -34.977087
-1680.767287 -1160.284135 -35.387504
-1678.809914 -1160.299920 -35.797921
-1676.852541 -1160.315705 -36.208338
-1674.895168 -1160.331491 -36.618755
-1672.937796 -1160.347276 -37.029172
-1670.980423 -1160.363061 -37.439589
-1669.023050 -1160.378846 -37.850006
-1667.065677 -1160.394632 -38.260423
-1665.108304 -1160.410417 -38.670840
-1663.150931 -1160.426202 -39.081256
-1661.193558 -1160.441987 -39.491673
-1659.236185 -1160.457773 -39.902090
-1657.278812 -1160.473558 -40.312507
-1655.321439 -1160.489343 -40.722924
-1653.364066 -1160.505128 -41.133341
-1651.406693 -1160.520914 -41.543758
-1649.449320 -1160.536699 -41.954175
-1647.491947 -1160.552484 -42.364592
-1645.534574 -1160.568270 -42.775009
-1643.577202 -1160.584055 -43.185425
-1641.619829 -1160.599840 -43.595842
-1639.662456 -1160.615625 -44.006259
-1637.705083 -1160.631411 -44.416676
-1635.747710 -1160.647196 -44.827093
-1633.790337 -1160.662981 -45.237510
-1631.832964 -1160.678766 -45.647927
-1629.875591 -1160.694552 -46.058344
-1627.918218 -1160.710337 -46.468761
-1625.960845 -1160.726122 -46.879178
-1624.003472 -1160.741907 -47.289595
-1622.046099 -1160.757693 -47.700011
-1620.088726 -1160.773478 -48.110428
-1618.131353 -1160.789263 -48.520845
-1616.173981 -1160.805049 -48.931262
-1614.216608 -1160.820834 -49.341679
-1612.259235 -1160.836619 -49.752096
-1610.301862 -1160.852404 -50.162513
-1608.344489 -1160.868190 -50.572930
-1606.387116 -1160.883975 -50.983347
-1604.429743 -1160.899760 -51.393764
-1602.472370 -1160.915545 -51.804180
-1600.514997 -1160.931331 -52.214597
-1598.557624 -1160.947116 -52.625014
-1596.600251 -1160.962901 -53.035431
-1594.642878 -1160.978686 -53.445848
-1592.685505 -1160.994472 -53.856265
-1590.728132 -1161.010257 -54.266682
-1588.770760 -1161.026042 -54.677099
-1586.813387 -1161.041828 -55.087516
-1584.856014 -1161.057613 -55.497933
-1582.898641 -1161.073398 -55.908350
-1580.941268 -1161.089183 -56.318766
-1578.983895 -1161.104969 -56.729183
-1577.026522 -1161.120754 -57.139600
-1575.069149 -1161.136539 -57.550017
-1573.111776 -1161.152324 -57.960434
-1571.154403 -1161.168110 -58.370851
-1569.197030 -1161.183895 -58.781268
-1567.239657 -1161.199680 -59.191685
-1565.282284 -1161.215465 -59.602102
-1563.324911 -1161.231251 -60.012519
-1561.367538 -1161.247036 -60.422935
-1559.410166 -1161.262821 -60.833352
-1557.452793 -1161.278607 -61.243769
-1555.495420 -1161.294392 -61.654186
-1553.538047 -1161.310177 -62.064603
-1551.580674 -1161.325962 -62.475020
-1549.623301 -1161.341748 -62.885437
-1547.665928 -1161.357533 -63.295854
-1545.708555 -1161.373318 -63.706271
-1543.751182 -1161.389103 -64.116688
-1541.793809 -1161.404889 -64.527105
-1539.836436 -1161.420674 -64.937521
-1537.879063 -1161.436459 -65.347938
-1535.921690 -1161.452244 -65.758355
-1533.964317 -1161.468030 -66.168772
-1532.006945 -1161.483815 -66.579189
-1530.049572 -1161.499600 -66.989606
-1528.092199 -1161.515385 -67.400023
-1526.134826 -1161.531171 -67.810440
-1524.177453 -1161.546956 -68.220857
-1522.220080 -1161.562741 -68.631274
-1520.262707 -1161.578527 -69.041690
-1518.305334 -1161.594312 -69.452107
-1516.347961 -1161.610097 -69.862524
-1514.390588 -1161.625882 -70.272941
-1512.433215 -1161.641668 -70.683358
-1510.475842 -1161.657453 -71.093775
-1508.518469 -1161.673238 -71.504192
-1506.561096 -1161.689023 -71.914609
-1504.603723 -1161.704809 -72.325026
-1502.646351 -1161.720594 -72.735443
-1500.688978 -1161.736379 -73.145860
-1498.731605 -1161.752164 -73.556276
-1496.774232 -1161.767950 -73.966693
-1494.816859 -1161.783735 -74.377110
-1492.859486 -1161.799520 -74.787527
-1490.902113 -1161.815306 -75.197944
-1488.944740 -1161.831091 -75.608361
-1486.987367 -1161.846876 -76.018778
-1485.029994 -1161.862661 -76.429195
-1483.072621 -1161.878447 -76.839612
-1481.115248 -1161.894232 -77.250029
-1479.157875 -1161.910017 -77.660445
-1477.200502 -1161.925802 -78.070862
-1475.243130 -1161.941588 -78.481279
-1473.285757 -1161.957373 -78.891696
-1471.328384 -1161.973158 -79.302113
-1469.371011 -1161.988943 -79.712530
-1467.413638 -1162.004729 -80.122947
-1465.456265 -1162.020514 -80.533364
-1463.498892 -1162.036299 -80.943781
-1461.541519 -1162.052085 -81.354198
-1459.584146 -1162.067870 -81.764615
-1457.626773 -1162.083655 -82.175031
-1455.669400 -1162.099440 -82.585448
-1453.712027 -1162.115226 -82.995865
-1451.754654 -1162.131011 -83.406282
-1449.797281 -1162.146796 -83.816699
-1447.839909 -1162.162581 -84.227116
-1445.882536 -1162.178367 -84.637533
-1443.925163 -1162.194152 -85.047950
-1441.967790 -1162.209937 -85.458367
-1440.010417 -1162.225722 -85.868784
-1438.053044 -1162.241508 -86.279200
-1436.095671 -1162.257293 -86.689617
-1434.138298 -1162.273078 -87.100034
-1432.180925 -1162.288864 -87.510451
-1430.223552 -1162.304649 -87.920868
-1428.266179 -1162.320434 -88.331285
-1426.308806 -1162.336219 -88.741702
-1424.351433 -1162.352005 -89.152119
-1422.394060 -1162.367790 -89.562536
-1420.436687 -1162.383575 -89.972953
-1418.479315 -1162.399360 -90.383370
-1416.521942 -1162.415146 -90.793786
-1414.564569 -1162.430931 -91.204203
-1412.607196 -1162.446716 -91.614620
-1410.649823 -1162.462501 -92.025037
-1408.692450 -1162.478287 -92.435454
-1406.735077 -1162.494072 -92.845871
-1404.777704 -1162.509857 -93.256288
-1402.820331 -1162.525642 -93.666705
-1400.862958 -1162.541428 -94.077122
-1398.905585 -1162.557213 -94.487539
-1396.948212 -1162.572998 -94.897955
-1394.990839 -1162.588784 -95.308372
-1393.033466 -1162.604569 -95.718789
-1391.076094 -1162.620354 -96.129206
-1389.118721 -1162.636139 -96.539623
-1387.161348 -1162.651925 -96.950040
-1385.203975 -1162.667710 -97.360457
-1383.246602 -1162.683495 -97.770874
-1381.289229 -1162.699280 -98.181291
-1379.331856 -1162.715066 -98.591708
-1377.374483 -1162.730851 -99.002125
-1375.417110 -1162.746636 -99.412541
-1373.459737 -1162.762421 -99.822958
-1371.502364 -1162.778207 -100.233375
-1369.544991 -1162.793992 -100.643792
-1367.587618 -1162.809777 -101.054209
-1365.630245 -1162.825563 -101.464626
-1363.672872 -1162.841348 -101.875043
-1361.715500 -1162.857133 -102.285460
-1359.758127 -1162.872918 -102.695877
-1357.800754 -1162.888704 -103.106294
-1355.843381 -1162.904489 -103.516710
-1353.886008 -1162.920274 -103.927127
-1351.928635 -1162.936059 -104.337544
-1349.971262 -1162.951845 -104.747961
-1348.013889 -1162.967630 -105.158378
-1346.056516 -1162.983415 -105.568795
-1344.099143 -1162.999200 -105.979212
-1342.141770 -1163.014986 -106.389629
-1340.184397 -1163.030771 -106.800046
-1338.227024 -1163.046556 -107.210463
-1336.269651 -1163.062342 -107.620880
-1334.312279 -1163.078127 -108.031296
-1332.354906 -1163.093912 -108.441713
-1330.397533 -1163.109697 -108.852130
-1328.440160 -1163.125483 -109.262547
-1326.482787 -1163.141268 -109.672964
-1324.525414 -1163.157053 -110.083381
-1322.568041 -1163.172838 -110.493798
-1320.610668 -1163.188624 -110.904215
-1318.653295 -1163.204409 -111.314632
-1316.695922 -1163.220194 -111.725049
-1314.738549 -1163.235979 -112.135465
-1312.781176 -1163.251765 -112.545882
-1310.823803 -1163.267550 -112.956299
-1308.866430 -1163.283335 -113.366716
-1306.909057 -1163.299121 -113.777133
-1304.951685 -1163.314906 -114.187550
-1302.994312 -1163.330691 -114.597967
-1301.036939 -1163.346476 -115.008384
-1299.079566 -1163.362262 -115.418801
-1297.122193 -1163.378047 -115.829218
-1295.164820 -1163.393832 -116.239635
-1293.207447 -1163.409617 -116.650051
-1291.250074 -1163.425403 -117.060468
-1289.292701 -1163.441188 -117.470885
-1287.335328 -1163.456973 -117.881302
-1285.377955 -1163.472758 -118.291719
-1283.420582 -1163.488544 -118.702136
-1281.463209 -1163.504329 -119.112553
-1279.505836 -1163.520114 -119.522970
-1277.548464 -1163.535899 -119.933387
-1275.591091 -1163.551685 -120.343804
-1273.633718 -1163.567470 -120.754220
-1271.676345 -1163.583255 -121.164637
-1269.718972 -1163.599041 -121.575054
-1267.761599 -1163.614826 -121.985471
-1265.804226 -1163.630611 -122.395888
-1263.846853 -1163.646396 -122.806305
-1261.889480 -1163.662182 -123.216722
-1259.932107 -1163.677967 -123.627139
-1257.974734 -1163.693752 -124.037556
-1256.017361 -1163.709537 -124.447973
-1254.059988 -1163.725323 -124.858390
-1252.102615 -1163.741108 -125.268806
-1250.145243 -1163.756893 -125.679223
-1248.187870 -1163.772678 -126.089640
-1246.230497 -1163.788464 -126.500057
-1244.273124 -1163.804249 -126.910474
-1242.315751 -1163.820034 -127.320891
-1240.358378 -1163.835820 -127.731308
-1238.401005 -1163.851605 -128.141725
-1236.443632 -1163.867390 -128.552142
-1234.486259 -1163.883175 -128.962559
-1232.528886 -1163.898961 -129.372975
-1230.571513 -1163.914746 -129.783392
-1228.614140 -1163.930531 -130.193809
-1226.656767 -1163.946316 -130.604226
-1224.699394 -1163.962102 -131.014643
-1222.742021 -1163.977887 -131.425060
-1220.784649 -1163.993672 -131.835477
-1218.827276 -1164.009457 -132.245894
-1216.869903 -1164.025243 -132.656311
-1214.912530 -1164.041028 -133.066728
-1212.955157 -1164.056813 -133.477145
-1210.997784 -1164.072599 -133.887561
-1209.040411 -1164.088384 -134.297978
-1207.083038 -1164.104169 -134.708395
-1205.125665 -1164.119954 -135.118812
-1203.168292 -1164.135740 -135.529229
-1201.210919 -1164.151525 -135.939646
-1199.253546 -1164.167310 -136.350063
-1197.296173 -1164.183095 -136.760480
-1195.338800 -1164.198881 -137.170897
-1193.381428 -1164.214666 -137.581314
-1191.424055 -1164.230451 -137.991730
-1189.466682 -1164.246236 -138.402147
-1187.509309 -1164.262022 -138.812564
-1185.551936 -1164.277807 -139.222981
-1183.594563 -1164.293592 -139.633398
-1181.637190 -1164.309378 -140.043815
-1179.679817 -1164.325163 -140.454232
-1177.722444 -1164.340948 -140.864649
-1175.765071 -1164.356733 -141.275066
-1173.807698 -1164.372519 -141.685483
-1171.850325 -1164.388304 -142.095900
-1169.892952 -1164.404089 -142.506316
-1167.935579 -1164.419874 -142.916733
-1165.978206 -1164.435660 -143.327150
-1164.020834 -1164.451445 -143.737567
-1162.063461 -1164.467230 -144.147984
-1160.106088 -1164.483015 -144.558401
-1158.148715 -1164.498801 -144.968818
-1156.191342 -1164.514586 -145.379235
-1154.233969 -1164.530371 -145.789652
-1152.276596 -1164.546156 -146.200069
-1150.319223 -1164.561942 -146.610485
-1148.361850 -1164.577727 -147.020902
-1146.404477 -1164.593512 -147.431319
-1144.447104 -1164.609298 -147.841736
-1142.489731 -1164.625083 -148.252153
-1140.532358 -1164.640868 -148.662570
-1138.574985 -1164.656653 -149.072987
-1136.617613 -1164.672439 -149.483404
-1134.660240 -1164.688224 -149.893821
-1132.702867 -1164.704009 -150.304238
-1130.745494 -1164.719794 -150.714655
-1128.788121 -1164.735580 -151.125071
-1126.830748 -1164.751365 -151.535488
-1124.873375 -1164.767150 -151.945905
-1122.916002 -1164.782935 -152.356322
-1120.958629 -1164.798721 -152.766739
-1119.001256 -1164.814506 -153.177156
-1117.043883 -1164.830291 -153.587573
-1115.086510 -1164.846077 -153.997990
-1113.129137 -1164.861862 -154.408407
-1111.171764 -1164.877647 -154.818824
-1109.214391 -1164.893432 -155.229240
-1107.257019 -1164.909218 -155.639657
-1105.299646 -1164.925003 -156.050074
-1103.342273 -1164.940788 -156.460491
-1101.384900 -1164.956573 -156.870908
-1099.427527 -1164.972359 -157.281325
-1097.470154 -1164.988144 -157.691742
-1095.512781 -1165.003929 -158.102159
-1093.555408 -1165.019714 -158.512576
-1091.598035 -1165.035500 -158.922993
-1089.640662 -1165.051285 -159.333410
-1087.683289 -1165.067070 -159.743826
-1085.725916 -1165.082856 -160.154243
-1083.768543 -1165.098641 -160.564660
-1081.811170 -1165.114426 -160.975077
-1079.853798 -1165.130211 -161.385494
-1077.896425 -1165.145997 -161.795911
-1075.939052 -1165.161782 -162.206328
-1073.981679 -1165.177567 -162.616745
-1072.024306 -1165.193352 -163.027162
-1070.066933 -1165.209138 -163.437579
-1068.109560 -1165.224923 -163.847995
-1066.152187 -1165.240708 -164.258412
-1064.194814 -1165.256493 -164.668829
-1062.237441 -1165.272279 -165.079246
-1060.280068 -1165.288064 -165.489663
-1058.322695 -1165.303849 -165.900080
-1056.365322 -1165.319634 -166.310497
-1054.407949 -1165.335420 -166.720914
-1052.450577 -1165.351205 -167.131331
-1050.493204 -1165.366990 -167.541748
-1048.535831 -1165.382776 -167.952165
-1046.578458 -1165.398561 -168.362581
-1044.621085 -1165.414346 -168.772998
-1042.663712 -1165.430131 -169.183415
-1040.706339 -1165.445917 -169.593832
-1038.748966 -1165.461702 -170.004249
-1036.791593 -1165.477487 -170.414666
-1034.834220 -1165.493272 -170.825083
-1032.876847 -1165.509058 -171.235500
-1030.919474 -1165.524843 -171.645917
-1028.962101 -1165.540628 -172.056334
-1027.004728 -1165.556413 -172.466750
-1025.047355 -1165.572199 -172.877167
-1023.089983 -1165.587984 -173.287584
-1021.132610 -1165.603769 -173.698001
-1019.175237 -1165.619555 -174.108418
-1017.217864 -1165.635340 -174.518835
-1015.260491 -1165.651125 -174.929252
-1013.303118 -1165.666910 -175.339669
-1011.345745 -1165.682696 -175.750086
-1009.388372 -1165.698481 -176.160503
-1007.430999 -1165.714266 -176.570920
-1005.473626 -1165.730051 -176.981336
-1003.516253 -1165.745837 -177.391753
-1001.558880 -1165.761622 -177.802170
-999.601507 -1165.777407 -178.212587
-997.644134 -1165.793192 -178.623004
-995.686762 -1165.808978 -179.033421
-993.729389 -1165.824763 -179.443838
-991.772016 -1165.840548 -179.854255
-989.814643 -1165.856334 -180.264672
-987.857270 -1165.872119 -180.675089
-985.899897 -1165.887904 -181.085505
-983.942524 -1165.903689 -181.495922
-981.985151 -1165.919475 -181.906339
-980.027778 -1165.935260 -182.316756
-978.070405 -1165.951045 -182.727173
-976.113032 -1165.966830 -183.137590
-974.155659 -1165.982616 -183.548007
-972.198286 -1165.998401 -183.958424
-970.240913 -1166.014186 -184.368841
-968.283540 -1166.029971 -184.779258
-966.326168 -1166.045757 -185.189675
-964.368795 -1166.061542 -185.600091
-962.411422 -1166.077327 -186.010508
-960.454049 -1166.093113 -186.420925
-958.496676 -1166.108898 -186.831342
-956.539303 -1166.124683 -187.241759
-954.581930 -1166.140468 -187.652176
-952.624557 -1166.156254 -188.062593
-950.667184 -1166.172039 -188.473010
-948.709811 -1166.187824 -188.883427
-946.752438 -1166.203609 -189.293844
-944.795065 -1166.219395 -189.704260
-942.837692 -1166.235180 -190.114677
-940.880319 -1166.250965 -190.525094
-938.922947 -1166.266750 -190.935511
-936.965574 -1166.282536 -191.345928
-935.008201 -1166.298321 -191.756345
-933.050828 -1166.314106 -192.166762
-931.093455 -1166.329891 -192.577179
-929.136082 -1166.345677 -192.987596
-927.178709 -1166.361462 -193.398013
-925.221336 -1166.377247 -193.808430
-923.263963 -1166.393033 -194.218846
-921.306590 -1166.408818 -194.629263
-919.349217 -1166.424603 -195.039680
-917.391844 -1166.440388 -195.450097
-915.434471 -1166.456174 -195.860514
-913.477098 -1166.471959 -196.270931
-911.519726 -1166.487744 -196.681348
-909.562353 -1166.503529 -197.091765
-907.604980 -1166.519315 -197.502182
-905.647607 -1166.535100 -197.912599
-903.690234 -1166.550885 -198.323015
-901.732861 -1166.566670 -198.733432
-899.775488 -1166.582456 -199.143849
-897.818115 -1166.598241 -199.554266
-895.860742 -1166.614026 -199.964683
-893.903369 -1166.629812 -200.375100
-891.945996 -1166.645597 -200.785517
-889.988623 -1166.661382 -201.195934
-888.031250 -1166.677167 -201.606351
-886.073877 -1166.692953 -202.016768
-884.116504 -1166.708738 -202.427185
-882.159132 -1166.724523 -202.837601
-880.201759 -1166.740308 -203.248018
-878.244386 -1166.756094 -203.658435
-876.287013 -1166.771879 -204.068852
-874.329640 -1166.787664 -204.479269
-872.372267 -1166.803449 -204.889686
-870.414894 -1166.819235 -205.300103
-868.457521 -1166.835020 -205.710520
-866.500148 -1166.850805 -206.120937
-864.542775 -1166.866591 -206.531354
-862.585402 -1166.882376 -206.941770
-860.628029 -1166.898161 -207.352187
-858.670656 -1166.913946 -207.762604
-856.713283 -1166.929732 -208.173021
-854.755911 -1166.945517 -208.583438
-852.798538 -1166.961302 -208.993855
-850.841165 -1166.977087 -209.404272
-848.883792 -1166.992873 -209.814689
-846.926419 -1167.008658 -210.225106
-844.969046 -1167.024443 -210.635523
-843.011673 -1167.040228 -211.045940
-841.054300 -1167.056014 -211.456356
-839.096927 -1167.071799 -211.866773
-837.139554 -1167.087584 -212.277190
-835.182181 -1167.103370 -212.687607
-833.224808 -1167.119155 -213.098024
-831.267435 -1167.134940 -213.508441
-829.310062 -1167.150725 -213.918858
-827.352689 -1167.166511 -214.329275
-825.395317 -1167.182296 -214.739692
-823.437944 -1167.198081 -215.150109
-821.480571 -1167.213866 -215.560525
-819.523198 -1167.229652 -215.970942
-817.565825 -1167.245437 -216.381359
-815.608452 -1167.261222 -216.791776
-813.651079 -1167.277007 -217.202193
-811.693706 -1167.292793 -217.612610
-809.736333 -1167.308578 -218.023027
-807.778960 -1167.324363 -218.433444
-805.821587 -1167.340148 -218.843861
-803.864214 -1167.355934 -219.254278
-801.906841 -1167.371719 -219.664695
-799.949468 -1167.387504 -220.075111
-797.992096 -1167.403290 -220.485528
-796.034723 -1167.419075 -220.895945
-794.077350 -1167.434860 -221.306362
-792.119977 -1167.450645 -221.716779
-790.162604 -1167.466431 -222.127196
-788.205231 -1167.482216 -222.537613
-786.247858 -1167.498001 -222.948030
-784.290485 -1167.513786 -223.358447
-782.333112 -1167.529572 -223.768864
-780.375739 -1167.545357 -224.179281
-778.418366 -1167.561142 -224.589697
-776.460993 -1167.576927 -225.000114
-774.503620 -1167.592713 -225.410531
-772.546247 -1167.608498 -225.820948
-770.588874 -1167.624283 -226.231365
-768.631502 -1167.640069 -226.641782
-766.674129 -1167.655854 -227.052199
-764.716756 -1167.671639 -227.462616
-762.759383 -1167.687424 -227.873033
-760.802010 -1167.703210 -228.283450
-758.844637 -1167.718995 -228.693866
-756.887264 -1167.734780 -229.104283
-754.929891 -1167.750565 -229.514700
-752.972518 -1167.766351 -229.925117
-751.015145 -1167.782136 -230.335534
-749.057772 -1167.797921 -230.745951
-747.100399 -1167.813706 -231.156368
-745.143026 -1167.829492 -231.566785
-743.185653 -1167.845277 -231.977202
-741.228281 -1167.861062 -232.387619
-739.270908 -1167.876848 -232.798036
-737.313535 -1167.892633 -233.208452
-735.356162 -1167.908418 -233.618869
-733.398789 -1167.924203 -234.029286
-731.441416 -1167.939989 -234.439703
-729.484043 -1167.955774 -234.850120
-727.526670 -1167.971559 -235.260537
-724.000000 -1168.000000 -236.000000
-722.216842 -1168.905731 -236.000000
-720.433685 -1169.811462 -236.000000
-718.650527 -1170.717193 -236.000000
-716.867369 -1171.622924 -236.000000
-715.084211 -1172.528655 -236.000000
-713.301054 -1173.434385 -236.000000
-711.517896 -1174.340116 -236.000000
-709.734738 -1175.245847 -236.000000
-707.951580 -1176.151578 -236.000000
-706.168423 -1177.057309 -236.000000
-704.385265 -1177.963040 -236.000000
-702.602107 -1178.868771 -236.000000
-700.818949 -1179.774502 -236.000000
-699.035792 -1180.680233 -236.000000
-697.252634 -1181.585964 -236.000000
-695.469476 -1182.491695 -236.000000
-693.686318 -1183.397426 -236.000000
-691.903161 -1184.303156 -236.000000
-690.120003 -1185.208887 -236.000000
-688.336845 -1186.114618 -236.000000
-686.553688 -1187.020349 -236.000000
-684.770530 -1187.926080 -236.000000
-682.987372 -1188.831811 -236.000000
-681.204214 -1189.737542 -236.000000
-679.421057 -1190.643273 -236.000000
-677.637899 -1191.549004 -236.000000
-675.854741 -1192.454735 -236.000000
-674.071583 -1193.360466 -236.000000
-672.288426 -1194.266196 -236.000000
-670.505268 -1195.171927 -236.000000
-668.722110 -1196.077658 -236.000000
-666.938952 -1196.983389 -236.000000
-665.155795 -1197.889120 -236.000000
-663.372637 -1198.794851 -236.000000
-661.589479 -1199.700582 -236.000000
-659.806321 -1200.606313 -236.000000
-658.023164 -1201.512044 -236.000000
-656.240006 -1202.417775 -236.000000
-654.456848 -1203.323506 -236.000000
-652.673691 -1204.229237 -236.000000
-650.890533 -1205.134967 -236.000000
-649.107375 -1206.040698 -236.000000
-647.324217 -1206.946429 -236.000000
-645.541060 -1207.852160 -236.000000
-643.757902 -1208.757891 -236.000000
-641.974744 -1209.663622 -236.000000
-640.191586 -1210.569353 -236.000000
-638.408429 -1211.475084 -236.000000
-636.625271 -1212.380815 -236.000000
-634.842113 -1213.286546 -236.000000
-633.058955 -1214.192277 -236.000000
-631.275798 -1215.098008 -236.000000
-629.492640 -1216.003738 -236.000000
-627.709482 -1216.909469 -236.000000
-625.926325 -1217.815200 -236.000000
-624.143167 -1218.720931 -236.000000
-622.360009 -1219.626662 -236.000000
-620.576851 -1220.532393 -236.000000
-618.793694 -1221.438124 -236.000000
-617.010536 -1222.343855 -236.000000
-615.227378 -1223.249586 -236.000000
-613.444220 -1224.155317 -236.000000
-611.661063 -1225.061048 -236.000000
-609.877905 -1225.966778 -236.000000
-608.094747 -1226.872509 -236.000000
-606.311589 -1227.778240 -236.000000
-604.528432 -1228.683971 -236.000000
-602.745274 -1229.589702 -236.000000
-600.962116 -1230.495433 -236.000000
-599.178958 -1231.401164 -236.000000
-597.395801 -1232.306895 -236.000000
-595.612643 -1233.212626 -236.000000
-593.829485 -1234.118357 -236.000000
-592.046328 -1235.024088 -236.000000
-590.263170 -1235.929819 -236.000000
-588.480012 -1236.835549 -236.000000
-586.696854 -1237.741280 -236.000000
-584.913697 -1238.647011 -236.000000
-583.130539 -1239.552742 -236.000000
-581.347381 -1240.458473 -236.000000
-579.564223 -1241.364204 -236.000000
-577.781066 -1242.269935 -236.000000
-575.997908 -1243.175666 -236.000000
-574.214750 -1244.081397 -236.000000
-572.431592 -1244.987128 -236.000000
-570.648435 -1245.892859 -236.000000
-568.865277 -1246.798589 -236.000000
-567.082119 -1247.704320 -236.000000
-565.298961 -1248.610051 -236.000000
-563.515804 -1249.515782 -236.000000
-561.732646 -1250.421513 -236.000000
-559.949488 -1251.327244 -236.000000
-558.166331 -1252.232975 -236.000000
-556.383173 -1253.138706 -236.000000
-554.600015 -1254.044437 -236.000000
-552.816857 -1254.950168 -236.000000
-551.033700 -1255.855899 -236.000000
-549.250542 -1256.761630 -236.000000
-547.467384 -1257.667360 -236.000000
-545.684226 -1258.573091 -236.000000
-543.901069 -1259.478822 -236.000000
-542.117911 -1260.384553 -236.000000
-540.334753 -1261.290284 -236.000000
-538.551595 -1262.196015 -236.000000
-536.768438 -1263.101746 -236.000000
-534.985280 -1264.007477 -236.000000
-533.202122 -1264.913208 -236.000000
-531.418964 -1265.818939 -236.000000
-529.635807 -1266.724670 -236.000000
-527.852649 -1267.630400 -236.000000
-526.069491 -1268.536131 -236.000000
-524.286334 -1269.441862 -236.000000
-522.503176 -1270.347593 -236.000000
-520.720018 -1271.253324 -236.000000
-518.936860 -1272.159055 -236.000000
-517.153703 -1273.064786 -236.000000
-515.370545 -1273.970517 -236.000000
-513.587387 -1274.876248 -236.000000
-511.804229 -1275.781979 -236.000000
-510.021072 -1276.687710 -236.000000
-508.237914 -1277.593441 -236.000000
-506.454756 -1278.499171 -236.000000
-504.671598 -1279.404902 -236.000000
-502.888441 -1280.310633 -236.000000
-501.105283 -1281.216364 -236.000000
-499.322125 -1282.122095 -236.000000
-497.538968 -1283.027826 -236.000000
-495.755810 -1283.933557 -236.000000
-493.972652 -1284.839288 -236.000000
-492.189494 -1285.745019 -236.000000
-490.406337 -1286.650750 -236.000000
-488.623179 -1287.556481 -236.000000
-486.840021 -1288.462212 -236.000000
-485.056863 -1289.367942 -236.000000
-483.273706 -1290.273673 -236.000000
-481.490548 -1291.179404 -236.000000
-479.707390 -1292.085135 -236.000000
-477.924232 -1292.990866 -236.000000
-476.141075 -1293.896597 -236.000000
-474.357917 -1294.802328 -236.000000
-472.574759 -1295.708059 -236.000000
-470.791601 -1296.613790 -236.000000
-469.008444 -1297.519521 -236.000000
-467.225286 -1298.425252 -236.000000
-465.442128 -1299.330982 -236.000000
-463.658971 -1300.236713 -236.000000
-461.875813 -1301.142444 -236.000000
-460.092655 -1302.048175 -236.000000
-458.309497 -1302.953906 -236.000000
-456.526340 -1303.859637 -236.000000
-454.743182 -1304.765368 -236.000000
-452.960024 -1305.671099 -236.000000
-451.176866 -1306.576830 -236.000000
-449.393709 -1307.482561 -236.000000
-447.610551 -1308.388292 -236.000000
-445.827393 -1309.294023 -236.000000
-444.044235 -1310.199753 -236.000000
-442.261078 -1311.105484 -236.000000
-440.477920 -1312.011215 -236.000000
-438.694762 -1312.916946 -236.000000
-436.911604 -1313.822677 -236.000000
-435.128447 -1314.728408 -236.000000
-433.345289 -1315.634139 -236.000000
-431.562131 -1316.539870 -236.000000
-429.778974 -1317.445601 -236.000000
-427.995816 -1318.351332 -236.000000
-426.212658 -1319.257063 -236.000000
-424.429500 -1320.162793 -236.000000
-422.646343 -1321.068524 -236.000000
-420.863185 -1321.974255 -236.000000
-419.080027 -1322.879986 -236.000000
-417.296869 -1323.785717 -236.000000
-415.513712 -1324.691448 -236.000000
-413.730554 -1325.597179 -236.000000
-411.947396 -1326.502910 -236.000000
-410.164238 -1327.408641 -236.000000
-408.381081 -1328.314372 -236.000000
-406.597923 -1329.220103 -236.000000
-404.814765 -1330.125834 -236.000000
-403.031607 -1331.031564 -236.000000
-401.248450 -1331.937295 -236.000000
-399.465292 -1332.843026 -236.000000
-397.682134 -1333.748757 -236.000000
-395.898977 -1334.654488 -236.000000
-394.115819 -1335.560219 -236.000000
-392.332661 -1336.465950 -236.000000
-390.549503 -1337.371681 -236.000000
-388.766346 -1338.277412 -236.000000
-386.983188 -1339.183143 -236.000000
-385.200030 -1340.088874 -236.000000
-383.416872 -1340.994605 -236.000000
-381.633715 -1341.900335 -236.000000
-379.850557 -1342.806066 -236.000000
-378.067399 -1343.711797 -236.000000
-376.284241 -1344.617528 -236.000000
-374.501084 -1345.523259 -236.000000
-372.717926 -1346.428990 -236.000000
-370.934768 -1347.334721 -236.000000
-369.151610 -1348.240452 -236.000000
-367.368453 -1349.146183 -236.000000
-365.585295 -1350.051914 -236.000000
-363.802137 -1350.957645 -236.000000
-362.018980 -1351.863375 -236.000000
-360.235822 -1352.769106 -236.000000
-358.452664 -1353.674837 -236.000000
-356.669506 -1354.580568 -236.000000
-354.886349 -1355.486299 -236.000000
-353.103191 -1356.392030 -236.000000
-351.320033 -1357.297761 -236.000000
-349.536875 -1358.203492 -236.000000
-347.753718 -1359.109223 -236.000000
-345.970560 -1360.014954 -236.000000
-344.187402 -1360.920685 -236.000000
-342.404244 -1361.826416 -236.000000
-340.621087 -1362.732146 -236.000000
-338.837929 -1363.637877 -236.000000
-337.054771 -1364.543608 -236.000000
-335.271614 -1365.449339 -236.000000
-333.488456 -1366.355070 -236.000000
-331.705298 -1367.260801 -236.000000
-329.922140 -1368.166532 -236.000000
-328.138983 -1369.072263 -236.000000
-326.355825 -1369.977994 -236.000000
-324.572667 -1370.883725 -236.000000
-322.789509 -1371.789456 -236.000000
-321.006352 -1372.695186 -236.000000
-319.223194 -1373.600917 -236.000000
-317.440036 -1374.506648 -236.000000
-315.656878 -1375.412379 -236.000000
-313.873721 -1376.318110 -236.000000
-312.090563 -1377.223841 -236.000000
-310.307405 -1378.129572 -236.000000
-308.524247 -1379.035303 -236.000000
-306.741090 -1379.941034 -236.000000
-304.957932 -1380.846765 -236.000000
-303.174774 -1381.752496 -236.000000
-301.391617 -1382.658227 -236.000000
-299.608459 -1383.563957 -236.000000
-297.825301 -1384.469688 -236.000000
-296.042143 -1385.375419 -236.000000
-294.258986 -1386.281150 -236.000000
-292.475828 -1387.186881 -236.000000
-290.692670 -1388.092612 -236.000000
-288.909512 -1388.998343 -236.000000
-287.126355 -1389.904074 -236.000000
-285.343197 -1390.809805 -236.000000
-283.560039 -1391.715536 -236.000000
-281.776881 -1392.621267 -236.000000
-279.993724 -1393.526997 -236.000000
-278.210566 -1394.432728 -236.000000
-276.427408 -1395.338459 -236.000000
-274.644250 -1396.244190 -236.000000
-272.861093 -1397.149921 -236.000000
-271.077935 -1398.055652 -236.000000
-269.294777 -1398.961383 -236.000000
-267.511620 -1399.867114 -236.000000
-265.728462 -1400.772845 -236.000000
-263.945304 -1401.678576 -236.000000
-262.162146 -1402.584307 -236.000000
-260.378989 -1403.490038 -236.000000
-258.595831 -1404.395768 -236.000000
-256.812673 -1405.301499 -236.000000
-255.029515 -1406.207230 -236.000000
-253.246358 -1407.112961 -236.000000
-251.463200 -1408.018692 -236.000000
-249.680042 -1408.924423 -236.000000
-247.896884 -1409.830154 -236.000000
-246.113727 -1410.735885 -236.000000
-244.330569 -1411.641616 -236.000000
-242.547411 -1412.547347 -236.000000
-240.764253 -1413.453078 -236.000000
-238.981096 -1414.358809 -236.000000
-237.197938 -1415.264539 -236.000000
-235.414780 -1416.170270 -236.000000
-233.631623 -1417.076001 -236.000000
-231.848465 -1417.981732 -236.000000
-230.065307 -1418.887463 -236.000000
-228.282149 -1419.793194 -236.000000
-226.498992 -1420.698925 -236.000000
-224.715834 -1421.604656 -236.000000
-222.932676 -1422.510387 -236.000000
-220.000000 -1424.000000 -236.000000
-220.000000 -1426.000000 -236.000000
-220.000000 -1428.000000 -236.000000
-220.000000 -1430.000000 -236.000000
-220.000000 -1432.000000 -236.000000
-220.000000 -1434.000000 -236.000000
-220.000000 -1436.000000 -236.000000
-220.000000 -1438.000000 -236.000000
-220.000000 -1440.000000 -236.000000
-220.000000 -1442.000000 -236.000000
-220.000000 -1444.000000 -236.000000
-220.000000 -1446.000000 -236.000000
-220.000000 -1448.000000 -236.000000
-220.000000 -1450.000000 -236.000000
-220.000000 -1452.000000 -236.000000
-220.000000 -1454.000000 -236.000000
-220.000000 -1456.000000 -236.000000
-220.000000 -1458.000000 -236.000000
-220.000000 -1460.000000 -236.000000
-220.000000 -1462.000000 -236.000000
-220.000000 -1464.000000 -236.000000
-220.000000 -1466.000000 -236.000000
-220.000000 -1468.000000 -236.000000
-220.000000 -1470.000000 -236.000000
-220.000000 -1472.000000 -236.000000
-220.000000 -1474.000000 -236.000000
-220.000000 -1476.000000 -236.000000
-220.000000 -1478.000000 -236.000000
-220.000000 -1480.000000 -236.000000
-220.000000 -1482.000000 -236.000000
-220.000000 -1484.000000 -236.000000
-220.000000 -1486.000000 -236.000000
-220.000000 -1488.000000 -236.000000
-220.000000 -1490.000000 -236.000000
-220.000000 -1492.000000 -236.000000
-220.000000 -1494.000000 -236.000000
-220.000000 -1496.000000 -236.000000
-220.000000 -1498.000000 -236.000000
-220.000000 -1500.000000 -236.000000
-220.000000 -1502.000000 -236.000000
-220.000000 -1504.000000 -236.000000
-220.000000 -1506.000000 -236.000000
-220.000000 -1508.000000 -236.000000
-220.000000 -1510.000000 -236.000000
-220.000000 -1512.000000 -236.000000
-220.000000 -1514.000000 -236.000000
-220.000000 -1516.000000 -236.000000
-220.000000 -1518.000000 -236.000000
-220.000000 -1520.000000 -236.000000
-220.000000 -1522.000000 -236.000000
-220.000000 -1524.000000 -236.000000
-220.000000 -1526.000000 -236.000000
-220.000000 -1528.000000 -236.000000
-220.000000 -1530.000000 -236.000000
-220.000000 -1532.000000 -236.000000
-220.000000 -1534.000000 -236.000000
-220.000000 -1536.000000 -236.000000
-220.000000 -1538.000000 -236.000000
-220.000000 -1540.000000 -236.000000
-220.000000 -1542.000000 -236.000000
-220.000000 -1544.000000 -236.000000
-220.000000 -1546.000000 -236.000000
-220.000000 -1548.000000 -236.000000
-220.000000 -1550.000000 -236.000000
-220.000000 -1552.000000 -236.000000
-220.000000 -1554.000000 -236.000000
-220.000000 -1556.000000 -236.000000
-220.000000 -1558.000000 -236.000000
-220.000000 -1560.000000 -236.000000
-220.000000 -1562.000000 -236.000000
-220.000000 -1564.000000 -236.000000
-220.000000 -1566.000000 -236.000000
-220.000000 -1568.000000 -236.000000
-220.000000 -1570.000000 -236.000000
-220.000000 -1572.000000 -236.000000
-220.000000 -1574.000000 -236.000000
-220.000000 -1576.000000 -236.000000
-220.000000 -1578.000000 -236.000000
-220.000000 -1580.000000 -236.000000
-220.000000 -1582.000000 -236.000000
-220.000000 -1584.000000 -236.000000
-220.000000 -1586.000000 -236.000000
-220.000000 -1588.000000 -236.000000
-220.000000 -1590.000000 -236.000000
-220.000000 -1592.000000 -236.000000
-220.000000 -1594.000000 -236.000000
-220.000000 -1596.000000 -236.000000
-220.000000 -1598.000000 -236.000000
-220.000000 -1600.000000 -236.000000
-220.000000 -1602.000000 -236.000000
-220.000000 -1604.000000 -236.000000
-220.000000 -1606.000000 -236.000000
-220.000000 -1608.000000 -236.000000
-220.000000 -1610.000000 -236.000000
-220.000000 -1612.000000 -236.000000
-220.000000 -1614.000000 -236.000000
-220.000000 -1616.000000 -236.000000
-220.000000 -1618.000000 -236.000000
-220.000000 -1620.000000 -236.000000
-220.000000 -1622.000000 -236.000000
-220.000000 -1624.000000 -236.000000
-220.000000 -1626.000000 -236.000000
-220.000000 -1628.000000 -236.000000
-220.000000 -1630.000000 -236.000000
-220.000000 -1632.000000 -236.000000
-220.000000 -1634.000000 -236.000000
-220.000000 -1636.000000 -236.000000
-220.000000 -1638.000000 -236.000000
-220.000000 -1640.000000 -236.000000
-220.000000 -1642.000000 -236.000000
-220.000000 -1644.000000 -236.000000
-220.000000 -1646.000000 -236.000000
-220.000000 -1648.000000 -236.000000
-220.000000 -1650.000000 -236.000000
-220.000000 -1652.000000 -236.000000
-220.000000 -1654.000000 -236.000000
-220.000000 -1656.000000 -236.000000
-220.000000 -1658.000000 -236.000000
-220.000000 -1660.000000 -236.000000
-220.000000 -1662.000000 -236.000000
-220.000000 -1664.000000 -236.000000
-220.000000 -1666.000000 -236.000000
-220.000000 -1668.000000 -236.000000
-220.000000 -1670.000000 -236.000000
-220.000000 -1672.000000 -236.000000
-220.000000 -1674.000000 -236.000000
-220.000000 -1676.000000 -236.000000
-220.000000 -1678.000000 -236.000000
-220.000000 -1680.000000 -236.000000
-220.000000 -1682.000000 -236.000000
-220.000000 -1684.000000 -236.000000
-220.000000 -1686.000000 -236.000000
-220.000000 -1688.000000 -236.000000
-220.000000 -1690.000000 -236.000000
-220.000000 -1692.000000 -236.000000
-220.000000 -1694.000000 -236.000000
-220.000000 -1696.000000 -236.000000
-220.000000 -1698.000000 -236.000000
-220.000000 -1700.000000 -236.000000
-220.000000 -1702.000000 -236.000000
-220.000000 -1704.000000 -236.000000
-220.000000 -1706.000000 -236.000000
-220.000000 -1708.000000 -236.000000
-220.000000 -1710.000000 -236.000000
-220.000000 -1712.000000 -236.000000
-220.000000 -1714.000000 -236.000000
-220.000000 -1716.000000 -236.000000
-220.000000 -1718.000000 -236.000000
-220.000000 -1720.000000 -236.000000
-220.000000 -1722.000000 -236.000000
-220.000000 -1724.000000 -236.000000
-220.000000 -1726.000000 -236.000000
-220.000000 -1728.000000 -236.000000
-220.000000 -1730.000000 -236.000000
-220.000000 -1732.000000 -236.000000
-220.000000 -1734.000000 -236.000000
-220.000000 -1736.000000 -236.000000
-220.000000 -1738.000000 -236.000000
-220.000000 -1740.000000 -236.000000
-220.000000 -1742.000000 -236.000000
-220.000000 -1744.000000 -236.000000
-220.000000 -1746.000000 -236.000000
-220.000000 -1748.000000 -236.000000
-220.000000 -1750.000000 -236.000000
-220.000000 -1752.000000 -236.000000
-220.000000 -1754.000000 -236.000000
-220.000000 -1756.000000 -236.000000
-220.000000 -1758.000000 -236.000000
-220.000000 -1760.000000 -236.000000
-220.000000 -1762.000000 -236.000000
-220.000000 -1764.000000 -236.000000
-220.000000 -1766.000000 -236.000000
-220.000000 -1768.000000 -236.000000
-220.000000 -1770.000000 -236.000000
-220.000000 -1772.000000 -236.000000
-220.000000 -1774.000000 -236.000000
-220.000000 -1776.000000 -236.000000
-220.000000 -1778.000000 -236.000000
-220.000000 -1780.000000 -236.000000
-220.000000 -1782.000000 -236.000000
-220.000000 -1784.000000 -236.000000
-220.000000 -1786.000000 -236.000000
-220.000000 -1788.000000 -236.000000
-220.000000 -1790.000000 -236.000000
-220.000000 -1792.000000 -236.000000
-220.000000 -1794.000000 -236.000000
-220.000000 -1796.000000 -236.000000
-220.000000 -1798.000000 -236.000000
-220.000000 -1800.000000 -236.000000
-220.000000 -1802.000000 -236.000000
-220.000000 -1804.000000 -236.000000
-220.000000 -1806.000000 -236.000000
-220.000000 -1808.000000 -236.000000
-220.000000 -1810.000000 -236.000000
-220.000000 -1812.000000 -236.000000
-220.000000 -1814.000000 -236.000000
-220.000000 -1816.000000 -236.000000
-220.000000 -1818.000000 -236.000000
-220.000000 -1820.000000 -236.000000
-220.000000 -1822.000000 -236.000000
-220.000000 -1824.000000 -236.000000
-220.000000 -1826.000000 -236.000000
-220.000000 -1828.000000 -236.000000
-220.000000 -1830.000000 -236.000000
-220.000000 -1832.000000 -236.000000
-220.000000 -1834.000000 -236.000000
-220.000000 -1836.000000 -236.000000
-220.000000 -1838.000000 -236.000000
-220.000000 -1840.000000 -236.000000
-220.000000 -1842.000000 -236.000000
-220.000000 -1844.000000 -236.000000
-220.000000 -1846.000000 -236.000000
-220.000000 -1848.000000 -236.000000
-220.000000 -1850.000000 -236.000000
-220.000000 -1852.000000 -236.000000
-220.000000 -1854.000000 -236.000000
-220.000000 -1856.000000 -236.000000
-220.000000 -1858.000000 -236.000000
-220.000000 -1860.000000 -236.000000
-220.000000 -1862.000000 -236.000000
-220.000000 -1864.000000 -236.000000
-220.000000 -1866.000000 -236.000000
-220.000000 -1868.000000 -236.000000
-220.000000 -1872.000000 -236.000000
-221.590111 -1873.213074 -236.000000
-223.180221 -1874.426148 -236.000000
-224.770332 -1875.639222 -236.000000
-226.360442 -1876.852296 -236.000000
-227.950553 -1878.065370 -236.000000
-229.540663 -1879.278444 -236.000000
-231.130774 -1880.491518 -236.000000
-232.720884 -1881.704592 -236.000000
-234.310995 -1882.917666 -236.000000
-235.901105 -1884.130740 -236.000000
-237.491216 -1885.343814 -236.000000
-239.081326 -1886.556888 -236.000000
-240.671437 -1887.769962 -236.000000
-242.261547 -1888.983036 -236.000000
-243.851658 -1890.196110 -236.000000
-245.441768 -1891.409184 -236.000000
-247.031879 -1892.622258 -236.000000
-248.621989 -1893.835332 -236.000000
-250.212100 -1895.048406 -236.000000
-251.802210 -1896.261480 -236.000000
-253.392321 -1897.474554 -236.000000
-254.982431 -1898.687628 -236.000000
-256.572542 -1899.900702 -236.000000
-258.162652 -1901.113776 -236.000000
-259.752763 -1902.326850 -236.000000
-261.342873 -1903.539924 -236.000000
-262.932984 -1904.752998 -236.000000
-264.523095 -1905.966072 -236.000000
-266.113205 -1907.179146 -236.000000
-267.703316 -1908.392220 -236.000000
-269.293426 -1909.605294 -236.000000
-270.883537 -1910.818368 -236.000000
-272.473647 -1912.031442 -236.000000
-274.063758 -1913.244516 -236.000000
-275.653868 -1914.457590 -236.000000
-277.243979 -1915.670664 -236.000000
-278.834089 -1916.883738 -236.000000
-280.424200 -1918.096812 -236.000000
-282.014310 -1919.309886 -236.000000
-283.604421 -1920.522960 -236.000000
-285.194531 -1921.736034 -236.000000
-286.784642 -1922.949108 -236.000000
-288.374752 -1924.162182 -236.000000
-289.964863 -1925.375256 -236.000000
-291.554973 -1926.588330 -236.000000
-293.145084 -1927.801404 -236.000000
-294.735194 -1929.014478 -236.000000
-296.325305 -1930.227552 -236.000000
-297.915415 -1931.440626 -236.000000
-299.505526 -1932.653700 -236.000000
-301.095636 -1933.866774 -236.000000
-302.685747 -1935.079848 -236.000000
-304.275857 -1936.292922 -236.000000
-305.865968 -1937.505996 -236.000000
-307.456079 -1938.719070 -236.000000
-309.046189 -1939.932144 -236.000000
-310.636300 -1941.145218 -236.000000
-312.226410 -1942.358292 -236.000000
-313.816521 -1943.571366 -236.000000
-315.406631 -1944.784440 -236.000000
-316.996742 -1945.997514 -236.000000
-318.586852 -1947.210588 -236.000000
-320.176963 -1948.423662 -236.000000
-321.767073 -1949.636736 -236.000000
-323.357184 -1950.849810 -236.000000
-324.947294 -1952.062884 -236.000000
-326.537405 -1953.275958 -236.000000
-328.127515 -1954.489032 -236.000000
-329.717626 -1955.702106 -236.000000
-331.307736 -1956.915180 -236.000000
-332.897847 -1958.128254 -236.000000
-334.487957 -1959.341328 -236.000000
-336.078068 -1960.554402 -236.000000
-337.668178 -1961.767476 -236.000000
-339.258289 -1962.980550 -236.000000
-340.848399 -1964.193624 -236.000000
-342.438510 -1965.406698 -236.000000
-344.028620 -1966.619772 -236.000000
-345.618731 -1967.832846 -236.000000
-347.208841 -1969.045920 -236.000000
-348.798952 -1970.258994 -236.000000
-350.389063 -1971.472068 -236.000000
-351.979173 -1972.685142 -236.000000
-353.569284 -1973.898216 -236.000000
-355.159394 -1975.111290 -236.000000
-356.749505 -1976.324364 -236.000000
-358.339615 -1977.537438 -236.000000
-359.929726 -1978.750512 -236.000000
-361.519836 -1979.963586 -236.000000
-363.109947 -1981.176660 -236.000000
-364.700057 -1982.389734 -236.000000
-366.290168 -1983.602808 -236.000000
-367.880278 -1984.815882 -236.000000
-369.470389 -1986.028956 -236.000000
-371.060499 -1987.242030 -236.000000
-372.650610 -1988.455104 -236.000000
-374.240720 -1989.668178 -236.000000
-375.830831 -1990.881252 -236.000000
-377.420941 -1992.094326 -236.000000
-379.011052 -1993.307400 -236.000000
-380.601162 -1994.520474 -236.000000
-382.191273 -1995.733548 -236.000000
-383.781383 -1996.946622 -236.000000
-385.371494 -1998.159696 -236.000000
-386.961604 -1999.372770 -236.000000
-388.551715 -2000.585844 -236.000000
-390.141825 -2001.798918 -236.000000
-391.731936 -2003.011992 -236.000000
-393.322047 -2004.225066 -236.000000
-394.912157 -2005.438140 -236.000000
-396.502268 -2006.651214 -236.000000
-398.092378 -2007.864288 -236.000000
-399.682489 -2009.077362 -236.000000
-401.272599 -2010.290436 -236.000000
-402.862710 -2011.503510 -236.000000
-404.452820 -2012.716584 -236.000000
-406.042931 -2013.929658 -236.000000
-407.633041 -2015.142732 -236.000000
-409.223152 -2016.355806 -236.000000
-410.813262 -2017.568880 -236.000000
-412.403373 -2018.781954 -236.000000
-413.993483 -2019.995028 -236.000000
-415.583594 -2021.208102 -236.000000
-417.173704 -2022.421176 -236.000000
-418.763815 -2023.634250 -236.000000
-420.353925 -2024.847324 -236.000000
-421.944036 -2026.060398 -236.000000
-423.534146 -2027.273472 -236.000000
-425.124257 -2028.486546 -236.000000
-426.714367 -2029.699620 -236.000000
-428.304478 -2030.912695 -236.000000
-429.894588 -2032.125769 -236.000000
-431.484699 -2033.338843 -236.000000
-433.074809 -2034.551917 -236.000000
-434.664920 -2035.764991 -236.000000
-436.255031 -2036.978065 -236.000000
-437.845141 -2038.191139 -236.000000
-439.435252 -2039.404213 -236.000000
-441.025362 -2040.617287 -236.000000
-442.615473 -2041.830361 -236.000000
-444.205583 -2043.043435 -236.000000
-445.795694 -2044.256509 -236.000000
-447.385804 -2045.469583 -236.000000
-448.975915 -2046.682657 -236.000000
-450.566025 -2047.895731 -236.000000
-452.156136 -2049.108805 -236.000000
-453.746246 -2050.321879 -236.000000
-455.336357 -2051.534953 -236.000000
-456.926467 -2052.748027 -236.000000
-458.516578 -2053.961101 -236.000000
-460.106688 -2055.174175 -236.000000
-461.696799 -2056.387249 -236.000000
-463.286909 -2057.600323 -236.000000
-464.877020 -2058.813397 -236.000000
-466.467130 -2060.026471 -236.000000
-468.057241 -2061.239545 -236.000000
-469.647351 -2062.452619 -236.000000
-471.237462 -2063.665693 -236.000000
-472.827572 -2064.878767 -236.000000
-474.417683 -2066.091841 -236.000000
-476.007793 -2067.304915 -236.000000
-477.597904 -2068.517989 -236.000000
-479.188015 -2069.731063 -236.000000
-480.778125 -2070.944137 -236.000000
-482.368236 -2072.157211 -236.000000
-483.958346 -2073.370285 -236.000000
-485.548457 -2074.583359 -236.000000
-487.138567 -2075.796433 -236.000000
-488.728678 -2077.009507 -236.000000
-490.318788 -2078.222581 -236.000000
-491.908899 -2079.435655 -236.000000
-493.499009 -2080.648729 -236.000000
-495.089120 -2081.861803 -236.000000
-496.679230 -2083.074877 -236.000000
-498.269341 -2084.287951 -236.000000
-499.859451 -2085.501025 -236.000000
-501.449562 -2086.714099 -236.000000
-503.039672 -2087.927173 -236.000000
-504.629783 -2089.140247 -236.000000
-506.219893 -2090.353321 -236.000000
-507.810004 -2091.566395 -236.000000
-509.400114 -2092.779469 -236.000000
-510.990225 -2093.992543 -236.000000
-512.580335 -2095.205617 -236.000000
-514.170446 -2096.418691 -236.000000
-515.760556 -2097.631765 -236.000000
-517.350667 -2098.844839 -236.000000
-518.940777 -2100.057913 -236.000000
-520.530888 -2101.270987 -236.000000
-522.120999 -2102.484061 -236.000000
-523.711109 -2103.697135 -236.000000
-525.301220 -2104.910209 -236.000000
-526.891330 -2106.123283 -236.000000
-528.481441 -2107.336357 -236.000000
-530.071551 -2108.549431 -236.000000
-531.661662 -2109.762505 -236.000000
-533.251772 -2110.975579 -236.000000
-534.841883 -2112.188653 -236.000000
-536.431993 -2113.401727 -236.000000
-538.022104 -2114.614801 -236.000000
-539.612214 -2115.827875 -236.000000
-541.202325 -2117.040949 -236.000000
-542.792435 -2118.254023 -236.000000
-544.382546 -2119.467097 -236.000000
-545.972656 -2120.680171 -236.000000
-547.562767 -2121.893245 -236.000000
-549.152877 -2123.106319 -236.000000
-550.742988 -2124.319393 -236.000000
-552.333098 -2125.532467 -236.000000
-553.923209 -2126.745541 -236.000000
-555.513319 -2127.958615 -236.000000
-557.103430 -2129.171689 -236.000000
-558.693540 -2130.384763 -236.000000
-560.283651 -2131.597837 -236.000000
-561.873761 -2132.810911 -236.000000
-563.463872 -2134.023985 -236.000000
-565.053983 -2135.237059 -236.000000
-566.644093 -2136.450133 -236.000000
-568.234204 -2137.663207 -236.000000
-569.824314 -2138.876281 -236.000000
-571.414425 -2140.089355 -236.000000
-573.004535 -2141.302429 -236.000000
-574.594646 -2142.515503 -236.000000
-576.184756 -2143.728577 -236.000000
