-839.527866 991.291799 598.190154
-839.055733 990.583599 596.380308
-838.583599 989.875398 594.570463
-838.111465 989.167198 592.760617
-837.639332 988.458997 590.950771
-837.167198 987.750797 589.140925
-836.695064 987.042596 587.331079
-836.222931 986.334396 585.521234
-835.750797 985.626195 583.711388
-835.278663 984.917995 581.901542
-834.806529 984.209794 580.091696
-834.334396 983.501594 578.281850
-833.862262 982.793393 576.472005
-833.390128 982.085193 574.662159
-832.917995 981.376992 572.852313
-832.445861 980.668792 571.042467
-831.973727 979.960591 569.232622
-831.501594 979.252390 567.422776
-831.029460 978.544190 565.612930
-830.557326 977.835989 563.803084
-830.085193 977.127789 561.993238
-829.613059 976.419588 560.183393
-829.140925 975.711388 558.373547
-828.668792 975.003187 556.563701
-828.196658 974.294987 554.753855
-827.724524 973.586786 552.944009
-827.252390 972.878586 551.134164
-826.780257 972.170385 549.324318
-826.308123 971.462185 547.514472
-825.835989 970.753984 545.704626
-825.363856 970.045784 543.894780
-824.891722 969.337583 542.084935
-824.419588 968.629383 540.275089
-823.947455 967.921182 538.465243
-823.475321 967.212982 536.655397
-823.003187 966.504781 534.845551
-822.531054 965.796580 533.035706
-822.058920 965.088380 531.225860
-821.586786 964.380179 529.416014
-821.114653 963.671979 527.606168
-820.642519 962.963778 525.796322
-820.170385 962.255578 523.986477
-819.698252 961.547377 522.176631
-819.226118 960.839177 520.366785
-818.753984 960.130976 518.556939
-818.281850 959.422776 516.747094
-817.809717 958.714575 514.937248
-817.337583 958.006375 513.127402
-816.865449 957.298174 511.317556
-816.000000 956.000000 508.000000
-814.635363 954.537889 508.000000
-813.270727 953.075779 508.000000
-811.906090 951.613668 508.000000
-810.541454 950.151558 508.000000
-809.176817 948.689447 508.000000
-807.812181 947.227337 508.000000
-806.447544 945.765226 508.000000
-805.082908 944.303116 508.000000
-803.718271 942.841005 508.000000
-802.353635 941.378895 508.000000
-800.988998 939.916784 508.000000
-799.624362 938.454674 508.000000
-798.259725 936.992563 508.000000
-796.895089 935.530452 508.000000
-795.530452 934.068342 508.000000
-794.165816 932.606231 508.000000
-792.801179 931.144121 508.000000
-791.436543 929.682010 508.000000
-790.071906 928.219900 508.000000
-788.707270 926.757789 508.000000
-787.342633 925.295679 508.000000
-785.977997 923.833568 508.000000
-784.613360 922.371458 508.000000
-783.248724 920.909347 508.000000
-781.884087 919.447237 508.000000
-780.519451 917.985126 508.000000
-779.154814 916.523016 508.000000
-777.790178 915.060905 508.000000
-776.425541 913.598794 508.000000
-775.060905 912.136684 508.000000
-773.696268 910.674573 508.000000
-772.331632 909.212463 508.000000
-770.966995 907.750352 508.000000
-769.602359 906.288242 508.000000
-768.237722 904.826131 508.000000
-766.873086 903.364021 508.000000
-765.508449 901.901910 508.000000
-764.143813 900.439800 508.000000
-762.779176 898.977689 508.000000
-761.414540 897.515579 508.000000
-760.000000 896.000000 508.000000
-759.987342 894.000040 508.000000
-759.974684 892.000080 508.000000
-759.962026 890.000120 508.000000
-759.949368 888.000160 508.000000
-759.936710 886.000200 508.000000
-759.924052 884.000240 508.000000
-759.911394 882.000280 508.000000
-759.898736 880.000320 508.000000
-759.886078 878.000361 508.000000
-759.873420 876.000401 508.000000
-759.860762 874.000441 508.000000
-759.848104 872.000481 508.000000
-759.835446 870.000521 508.000000
-759.822788 868.000561 508.000000
-759.810130 866.000601 508.000000
-759.797472 864.000641 508.000000
-759.784814 862.000681 508.000000
-759.772156 860.000721 508.000000
-759.759498 858.000761 508.000000
-759.746841 856.000801 508.000000
-759.734183 854.000841 508.000000
-759.721525 852.000881 508.000000
-759.708867 850.000921 508.000000
-759.696209 848.000961 508.000000
-759.683551 846.001001 508.000000
-759.670893 844.001041 508.000000
-759.658235 842.001082 508.000000
-759.645577 840.001122 508.000000
-759.632919 838.001162 508.000000
-759.620261 836.001202 508.000000
-759.607603 834.001242 508.000000
-759.594945 832.001282 508.000000
-759.582287 830.001322 508.000000
-759.569629 828.001362 508.000000
-759.556971 826.001402 508.000000
-759.544313 824.001442 508.000000
-759.531655 822.001482 508.000000
-759.518997 820.001522 508.000000
-759.506339 818.001562 508.000000
-759.493681 816.001602 508.000000
-759.481023 814.001642 508.000000
-759.468365 812.001682 508.000000
-759.455707 810.001722 508.000000
-759.443049 808.001762 508.000000
-759.430391 806.001803 508.000000
-759.417733 804.001843 508.000000
-759.405075 802.001883 508.000000
-759.392417 800.001923 508.000000
-759.379759 798.001963 508.000000
-759.367101 796.002003 508.000000
-759.354443 794.002043 508.000000
-759.341785 792.002083 508.000000
-759.329127 790.002123 508.000000
-759.316469 788.002163 508.000000
-759.303811 786.002203 508.000000
-759.291153 784.002243 508.000000
-759.278495 782.002283 508.000000
-759.265837 780.002323 508.000000
-759.253180 778.002363 508.000000
-759.240522 776.002403 508.000000
-759.227864 774.002443 508.000000
-759.215206 772.002484 508.000000
-759.202548 770.002524 508.000000
-759.189890 768.002564 508.000000
-759.177232 766.002604 508.000000
-759.164574 764.002644 508.000000
-759.151916 762.002684 508.000000
-759.139258 760.002724 508.000000
-759.126600 758.002764 508.000000
-759.113942 756.002804 508.000000
-759.101284 754.002844 508.000000
-759.088626 752.002884 508.000000
-759.075968 750.002924 508.000000
-759.063310 748.002964 508.000000
-759.050652 746.003004 508.000000
-759.037994 744.003044 508.000000
-759.025336 742.003084 508.000000
-759.012678 740.003124 508.000000
-759.000020 738.003164 508.000000
-758.987362 736.003205 508.000000
-758.974704 734.003245 508.000000
-758.962046 732.003285 508.000000
-758.949388 730.003325 508.000000
-758.936730 728.003365 508.000000
-758.924072 726.003405 508.000000
-758.911414 724.003445 508.000000
-758.898756 722.003485 508.000000
-758.886098 720.003525 508.000000
-758.873440 718.003565 508.000000
-758.860782 716.003605 508.000000
-758.848124 714.003645 508.000000
-758.835466 712.003685 508.000000
-758.822808 710.003725 508.000000
-758.810150 708.003765 508.000000
-758.797492 706.003805 508.000000
-758.784834 704.003845 508.000000
-758.772176 702.003885 508.000000
-758.759519 700.003926 508.000000
-758.746861 698.003966 508.000000
-758.734203 696.004006 508.000000
-758.721545 694.004046 508.000000
-758.708887 692.004086 508.000000
-758.696229 690.004126 508.000000
-758.683571 688.004166 508.000000
-758.670913 686.004206 508.000000
-758.658255 684.004246 508.000000
-758.645597 682.004286 508.000000
-758.632939 680.004326 508.000000
-758.620281 678.004366 508.000000
-758.607623 676.004406 508.000000
-758.594965 674.004446 508.000000
-758.582307 672.004486 508.000000
-758.569649 670.004526 508.000000
-758.556991 668.004566 508.000000
-758.544333 666.004606 508.000000
-758.531675 664.004647 508.000000
-758.519017 662.004687 508.000000
-758.506359 660.004727 508.000000
-758.493701 658.004767 508.000000
-758.481043 656.004807 508.000000
-758.468385 654.004847 508.000000
-758.455727 652.004887 508.000000
-758.443069 650.004927 508.000000
-758.430411 648.004967 508.000000
-758.417753 646.005007 508.000000
-758.405095 644.005047 508.000000
-758.392437 642.005087 508.000000
-758.379779 640.005127 508.000000
-758.367121 638.005167 508.000000
-758.354463 636.005207 508.000000
-758.341805 634.005247 508.000000
-758.329147 632.005287 508.000000
-758.316489 630.005328 508.000000
-758.303831 628.005368 508.000000
-758.291173 626.005408 508.000000
-758.278515 624.005448 508.000000
-758.265858 622.005488 508.000000
-758.253200 620.005528 508.000000
-758.240542 618.005568 508.000000
-758.227884 616.005608 508.000000
-758.215226 614.005648 508.000000
-758.202568 612.005688 508.000000
-758.189910 610.005728 508.000000
-758.177252 608.005768 508.000000
-758.164594 606.005808 508.000000
-758.151936 604.005848 508.000000
-758.139278 602.005888 508.000000
-758.126620 600.005928 508.000000
-758.113962 598.005968 508.000000
-758.101304 596.006008 508.000000
-758.088646 594.006049 508.000000
-758.075988 592.006089 508.000000
-758.063330 590.006129 508.000000
-758.050672 588.006169 508.000000
-758.038014 586.006209 508.000000
-758.025356 584.006249 508.000000
-758.012698 582.006289 508.000000
-758.000040 580.006329 508.000000
-757.987382 578.006369 508.000000
-757.974724 576.006409 508.000000
-757.962066 574.006449 508.000000
-757.949408 572.006489 508.000000
-757.936750 570.006529 508.000000
-757.924092 568.006569 508.000000
-757.911434 566.006609 508.000000
-757.898776 564.006649 508.000000
-757.886118 562.006689 508.000000
-757.873460 560.006729 508.000000
-757.860802 558.006770 508.000000
-757.848144 556.006810 508.000000
-757.835486 554.006850 508.000000
-757.822828 552.006890 508.000000
-757.810170 550.006930 508.000000
-757.797512 548.006970 508.000000
-757.784854 546.007010 508.000000
-757.772197 544.007050 508.000000
-757.759539 542.007090 508.000000
-757.746881 540.007130 508.000000
-757.734223 538.007170 508.000000
-757.721565 536.007210 508.000000
-757.708907 534.007250 508.000000
-757.696249 532.007290 508.000000
-757.683591 530.007330 508.000000
-757.670933 528.007370 508.000000
-757.658275 526.007410 508.000000
-757.645617 524.007451 508.000000
-757.632959 522.007491 508.000000
-757.620301 520.007531 508.000000
-757.607643 518.007571 508.000000
-757.594985 516.007611 508.000000
-757.582327 514.007651 508.000000
-757.569669 512.007691 508.000000
-757.557011 510.007731 508.000000
-757.544353 508.007771 508.000000
-757.531695 506.007811 508.000000
-757.519037 504.007851 508.000000
-757.506379 502.007891 508.000000
-757.493721 500.007931 508.000000
-757.481063 498.007971 508.000000
-757.468405 496.008011 508.000000
-757.455747 494.008051 508.000000
-757.443089 492.008091 508.000000
-757.430431 490.008131 508.000000
-757.417773 488.008172 508.000000
-757.405115 486.008212 508.000000
-757.392457 484.008252 508.000000
-757.379799 482.008292 508.000000
-757.367141 480.008332 508.000000
-757.354483 478.008372 508.000000
-757.341825 476.008412 508.000000
-757.329167 474.008452 508.000000
-757.316509 472.008492 508.000000
-757.303851 470.008532 508.000000
-757.291193 468.008572 508.000000
-757.278536 466.008612 508.000000
-757.265878 464.008652 508.000000
-757.253220 462.008692 508.000000
-757.240562 460.008732 508.000000
-757.227904 458.008772 508.000000
-757.215246 456.008812 508.000000
-757.202588 454.008852 508.000000
-757.189930 452.008893 508.000000
-757.177272 450.008933 508.000000
-757.164614 448.008973 508.000000
-757.151956 446.009013 508.000000
-757.139298 444.009053 508.000000
-757.126640 442.009093 508.000000
-757.113982 440.009133 508.000000
-757.101324 438.009173 508.000000
-757.088666 436.009213 508.000000
-757.076008 434.009253 508.000000
-757.063350 432.009293 508.000000
-757.050692 430.009333 508.000000
-757.038034 428.009373 508.000000
-757.025376 426.009413 508.000000
-757.012718 424.009453 508.000000
-757.000060 422.009493 508.000000
-756.987402 420.009533 508.000000
-756.974744 418.009573 508.000000
-756.962086 416.009614 508.000000
-756.949428 414.009654 508.000000
-756.936770 412.009694 508.000000
-756.924112 410.009734 508.000000
-756.911454 408.009774 508.000000
-756.898796 406.009814 508.000000
-756.886138 404.009854 508.000000
-756.873480 402.009894 508.000000
-756.860822 400.009934 508.000000
-756.848164 398.009974 508.000000
-756.835506 396.010014 508.000000
-756.822848 394.010054 508.000000
-756.810190 392.010094 508.000000
-756.797532 390.010134 508.000000
-756.784875 388.010174 508.000000
-756.772217 386.010214 508.000000
-756.759559 384.010254 508.000000
-756.746901 382.010295 508.000000
-756.734243 380.010335 508.000000
-756.721585 378.010375 508.000000
-756.708927 376.010415 508.000000
-756.696269 374.010455 508.000000
-756.683611 372.010495 508.000000
-756.670953 370.010535 508.000000
-756.658295 368.010575 508.000000
-756.645637 366.010615 508.000000
-756.632979 364.010655 508.000000
-756.620321 362.010695 508.000000
-756.607663 360.010735 508.000000
-756.595005 358.010775 508.000000
-756.582347 356.010815 508.000000
-756.569689 354.010855 508.000000
-756.557031 352.010895 508.000000
-756.544373 350.010935 508.000000
-756.531715 348.010975 508.000000
-756.519057 346.011016 508.000000
-756.506399 344.011056 508.000000
-756.493741 342.011096 508.000000
-756.481083 340.011136 508.000000
-756.468425 338.011176 508.000000
-756.455767 336.011216 508.000000
-756.443109 334.011256 508.000000
-756.430451 332.011296 508.000000
-756.417793 330.011336 508.000000
-756.405135 328.011376 508.000000
-756.392477 326.011416 508.000000
-756.379819 324.011456 508.000000
-756.367161 322.011496 508.000000
-756.354503 320.011536 508.000000
-756.341845 318.011576 508.000000
-756.329187 316.011616 508.000000
-756.316529 314.011656 508.000000
-756.303871 312.011696 508.000000
-756.291214 310.011737 508.000000
-756.278556 308.011777 508.000000
-756.265898 306.011817 508.000000
-756.253240 304.011857 508.000000
-756.240582 302.011897 508.000000
-756.227924 300.011937 508.000000
-756.215266 298.011977 508.000000
-756.202608 296.012017 508.000000
-756.189950 294.012057 508.000000
-756.177292 292.012097 508.000000
-756.164634 290.012137 508.000000
-756.151976 288.012177 508.000000
-756.139318 286.012217 508.000000
-756.126660 284.012257 508.000000
-756.114002 282.012297 508.000000
-756.101344 280.012337 508.000000
-756.088686 278.012377 508.000000
-756.076028 276.012418 508.000000
-756.063370 274.012458 508.000000
-756.050712 272.012498 508.000000
-756.038054 270.012538 508.000000
-756.025396 268.012578 508.000000
-756.012738 266.012618 508.000000
-756.000000 264.000000 508.000000
-755.990103 262.099708 508.623533
-755.980205 260.199417 509.247066
-755.970308 258.299125 509.870600
-755.960411 256.398833 510.494133
-755.950513 254.498542 511.117666
-755.940616 252.598250 511.741199
-755.930719 250.697958 512.364732
-755.920821 248.797667 512.988266
-755.910924 246.897375 513.611799
-755.901026 244.997083 514.235332
-755.891129 243.096792 514.858865
-755.881232 241.196500 515.482398
-755.871334 239.296208 516.105932
-755.861437 237.395917 516.729465
-755.851540 235.495625 517.352998
-755.841642 233.595333 517.976531
-755.831745 231.695042 518.600064
-755.821848 229.794750 519.223598
-755.811950 227.894458 519.847131
-755.802053 225.994167 520.470664
-755.792156 224.093875 521.094197
-755.782258 222.193583 521.717730
-755.772361 220.293292 522.341264
-755.762464 218.393000 522.964797
-755.752566 216.492709 523.588330
-755.742669 214.592417 524.211863
-755.732771 212.692125 524.835396
-755.722874 210.791834 525.458930
-755.712977 208.891542 526.082463
-755.703079 206.991250 526.705996
-755.693182 205.090959 527.329529
-755.683285 203.190667 527.953062
-755.673387 201.290375 528.576596
-755.663490 199.390084 529.200129
-755.653593 197.489792 529.823662
-755.643695 195.589500 530.447195
-755.633798 193.689209 531.070728
-755.623901 191.788917 531.694262
-755.614003 189.888625 532.317795
-755.604106 187.988334 532.941328
-755.594209 186.088042 533.564861
-755.584311 184.187750 534.188394
-755.574414 182.287459 534.811928
-755.564516 180.387167 535.435461
-755.554619 178.486875 536.058994
-755.544722 176.586584 536.682527
-755.534824 174.686292 537.306060
-755.524927 172.786000 537.929594
-755.515030 170.885709 538.553127
-755.505132 168.985417 539.176660
-755.495235 167.085125 539.800193
-755.485338 165.184834 540.423726
-755.475440 163.284542 541.047260
-755.465543 161.384250 541.670793
-755.455646 159.483959 542.294326
-755.445748 157.583667 542.917859
-755.435851 155.683375 543.541392
-755.425954 153.783084 544.164926
-755.416056 151.882792 544.788459
-755.406159 149.982500 545.411992
-755.396262 148.082209 546.035525
-755.386364 146.181917 546.659058
-755.376467 144.281625 547.282592
-755.366569 142.381334 547.906125
-755.356672 140.481042 548.529658
-755.346775 138.580750 549.153191
-755.336877 136.680459 549.776724
-755.326980 134.780167 550.400258
-755.317083 132.879876 551.023791
-755.307185 130.979584 551.647324
-755.297288 129.079292 552.270857
-755.287391 127.179001 552.894390
-755.277493 125.278709 553.517924
-755.267596 123.378417 554.141457
-755.257699 121.478126 554.764990
-755.247801 119.577834 555.388523
-755.237904 117.677542 556.012056
-755.228007 115.777251 556.635590
-755.218109 113.876959 557.259123
-755.208212 111.976667 557.882656
-755.198314 110.076376 558.506189
-755.188417 108.176084 559.129722
-755.178520 106.275792 559.753256
-755.168622 104.375501 560.376789
-755.158725 102.475209 561.000322
-755.148828 100.574917 561.623855
-755.138930 98.674626 562.247388
-755.129033 96.774334 562.870922
-755.119136 94.874042 563.494455
-755.109238 92.973751 564.117988
-755.099341 91.073459 564.741521
-755.089444 89.173167 565.365054
-755.079546 87.272876 565.988588
-755.069649 85.372584 566.612121
-755.059752 83.472292 567.235654
-755.049854 81.572001 567.859187
-755.039957 79.671709 568.482720
-755.030059 77.771417 569.106254
-755.020162 75.871126 569.729787
-755.010265 73.970834 570.353320
-755.000367 72.070542 570.976853
-754.990470 70.170251 571.600386
-754.980573 68.269959 572.223920
-754.970675 66.369667 572.847453
-754.960778 64.469376 573.470986
-754.950881 62.569084 574.094519
-754.940983 60.668792 574.718052
-754.931086 58.768501 575.341586
-754.921189 56.868209 575.965119
-754.911291 54.967917 576.588652
-754.901394 53.067626 577.212185
-754.891497 51.167334 577.835718
-754.881599 49.267043 578.459252
-754.871702 47.366751 579.082785
-754.861804 45.466459 579.706318
-754.851907 43.566168 580.329851
-754.842010 41.665876 580.953384
-754.832112 39.765584 581.576918
-754.822215 37.865293 582.200451
-754.812318 35.965001 582.823984
-754.802420 34.064709 583.447517
-754.792523 32.164418 584.071050
-754.782626 30.264126 584.694584
-754.772728 28.363834 585.318117
-754.762831 26.463543 585.941650
-754.752934 24.563251 586.565183
-754.743036 22.662959 587.188716
-754.733139 20.762668 587.812250
-754.723242 18.862376 588.435783
-754.713344 16.962084 589.059316
-754.703447 15.061793 589.682849
-754.693549 13.161501 590.306382
-754.683652 11.261209 590.929916
-754.673755 9.360918 591.553449
-754.663857 7.460626 592.176982
-754.653960 5.560334 592.800515
-754.644063 3.660043 593.424048
-754.634165 1.759751 594.047582
-754.624268 -0.140541 594.671115
-754.614371 -2.040832 595.294648
-754.604473 -3.941124 595.918181
-754.594576 -5.841416 596.541714
-754.584679 -7.741707 597.165248
-754.574781 -9.641999 597.788781
-754.564884 -11.542291 598.412314
-754.554987 -13.442582 599.035847
-754.545089 -15.342874 599.659380
-754.535192 -17.243166 600.282914
-754.525294 -19.143457 600.906447
-754.515397 -21.043749 601.529980
-754.505500 -22.944041 602.153513
-754.495602 -24.844332 602.777047
-754.485705 -26.744624 603.400580
-754.475808 -28.644916 604.024113
-754.465910 -30.545207 604.647646
-754.456013 -32.445499 605.271179
-754.446116 -34.345790 605.894713
-754.436218 -36.246082 606.518246
-754.426321 -38.146374 607.141779
-754.416424 -40.046665 607.765312
-754.406526 -41.946957 608.388845
-754.396629 -43.847249 609.012379
-754.386732 -45.747540 609.635912
-754.376834 -47.647832 610.259445
-754.366937 -49.548124 610.882978
-754.357040 -51.448415 611.506511
-754.347142 -53.348707 612.130045
-754.337245 -55.248999 612.753578
-754.327347 -57.149290 613.377111
-754.317450 -59.049582 614.000644
-754.307553 -60.949874 614.624177
-754.297655 -62.850165 615.247711
-754.287758 -64.750457 615.871244
-754.277861 -66.650749 616.494777
-754.267963 -68.551040 617.118310
-754.258066 -70.451332 617.741843
-754.248169 -72.351624 618.365377
-754.238271 -74.251915 618.988910
-754.228374 -76.152207 619.612443
-754.218477 -78.052499 620.235976
-754.208579 -79.952790 620.859509
-754.198682 -81.853082 621.483043
-754.188785 -83.753374 622.106576
-754.178887 -85.653665 622.730109
-754.168990 -87.553957 623.353642
-754.159092 -89.454249 623.977175
-754.149195 -91.354540 624.600709
-754.139298 -93.254832 625.224242
-754.129400 -95.155124 625.847775
-754.119503 -97.055415 626.471308
-754.109606 -98.955707 627.094841
-754.099708 -100.855999 627.718375
-754.089811 -102.756290 628.341908
-754.079914 -104.656582 628.965441
-754.070016 -106.556874 629.588974
-754.060119 -108.457165 630.212507
-754.050222 -110.357457 630.836041
-754.040324 -112.257749 631.459574
-754.030427 -114.158040 632.083107
-754.020530 -116.058332 632.706640
-754.010632 -117.958624 633.330173
-754.000735 -119.858915 633.953707
-753.990837 -121.759207 634.577240
-753.980940 -123.659498 635.200773
-753.971043 -125.559790 635.824306
-753.961145 -127.460082 636.447839
-753.951248 -129.360373 637.071373
-753.941351 -131.260665 637.694906
-753.931453 -133.160957 638.318439
-753.921556 -135.061248 638.941972
-753.911659 -136.961540 639.565505
-753.901761 -138.861832 640.189039
-753.891864 -140.762123 640.812572
-753.881967 -142.662415 641.436105
-753.872069 -144.562707 642.059638
-753.862172 -146.462998 642.683171
-753.852275 -148.363290 643.306705
-753.842377 -150.263582 643.930238
-753.832480 -152.163873 644.553771
-753.822582 -154.064165 645.177304
-753.812685 -155.964457 645.800837
-753.802788 -157.864748 646.424371
-753.792890 -159.765040 647.047904
-753.782993 -161.665332 647.671437
-753.773096 -163.565623 648.294970
-753.763198 -165.465915 648.918503
-753.753301 -167.366207 649.542037
-753.743404 -169.266498 650.165570
-753.733506 -171.166790 650.789103
-753.723609 -173.067082 651.412636
-753.713712 -174.967373 652.036169
-753.703814 -176.867665 652.659703
-753.693917 -178.767957 653.283236
-753.684020 -180.668248 653.906769
-753.674122 -182.568540 654.530302
-753.664225 -184.468832 655.153835
-753.654327 -186.369123 655.777369
-753.644430 -188.269415 656.400902
-753.634533 -190.169707 657.024435
-753.624635 -192.069998 657.647968
-753.614738 -193.970290 658.271501
-753.604841 -195.870582 658.895035
-753.594943 -197.770873 659.518568
-753.585046 -199.671165 660.142101
-753.575149 -201.571457 660.765634
-753.565251 -203.471748 661.389167
-753.555354 -205.372040 662.012701
-753.545457 -207.272331 662.636234
-753.535559 -209.172623 663.259767
-753.525662 -211.072915 663.883300
-753.515765 -212.973206 664.506833
-753.505867 -214.873498 665.130367
-753.495970 -216.773790 665.753900
-753.486072 -218.674081 666.377433
-753.476175 -220.574373 667.000966
-753.466278 -222.474665 667.624499
-753.456380 -224.374956 668.248033
-753.446483 -226.275248 668.871566
-753.436586 -228.175540 669.495099
-753.426688 -230.075831 670.118632
-753.416791 -231.976123 670.742165
-753.406894 -233.876415 671.365699
-753.396996 -235.776706 671.989232
-753.387099 -237.676998 672.612765
-753.377202 -239.577290 673.236298
-753.367304 -241.477581 673.859831
-753.357407 -243.377873 674.483365
-753.347510 -245.278165 675.106898
-753.337612 -247.178456 675.730431
-753.327715 -249.078748 676.353964
-753.317818 -250.979040 676.977497
-753.307920 -252.879331 677.601031
-753.298023 -254.779623 678.224564
-753.288125 -256.679915 678.848097
-753.278228 -258.580206 679.471630
-753.268331 -260.480498 680.095163
-753.258433 -262.380790 680.718697
-753.248536 -264.281081 681.342230
-753.238639 -266.181373 681.965763
-753.228741 -268.081665 682.589296
-753.218844 -269.981956 683.212829
-753.208947 -271.882248 683.836363
-753.199049 -273.782540 684.459896
-753.189152 -275.682831 685.083429
-753.179255 -277.583123 685.706962
-753.169357 -279.483415 686.330495
-753.159460 -281.383706 686.954029
-753.149563 -283.283998 687.577562
-753.139665 -285.184290 688.201095
-753.129768 -287.084581 688.824628
-753.119870 -288.984873 689.448161
-753.109973 -290.885164 690.071695
-753.100076 -292.785456 690.695228
-753.090178 -294.685748 691.318761
-753.080281 -296.586039 691.942294
-753.070384 -298.486331 692.565827
-753.060486 -300.386623 693.189361
-753.050589 -302.286914 693.812894
-753.040692 -304.187206 694.436427
-753.030794 -306.087498 695.059960
-753.020897 -307.987789 695.683493
-753.011000 -309.888081 696.307027
-753.001102 -311.788373 696.930560
-752.991205 -313.688664 697.554093
-752.981308 -315.588956 698.177626
-752.971410 -317.489248 698.801159
-752.961513 -319.389539 699.424693
-752.951615 -321.289831 700.048226
-752.941718 -323.190123 700.671759
-752.931821 -325.090414 701.295292
-752.921923 -326.990706 701.918825
-752.912026 -328.890998 702.542359
-752.902129 -330.791289 703.165892
-752.892231 -332.691581 703.789425
-752.882334 -334.591873 704.412958
-752.872437 -336.492164 705.036491
-752.862539 -338.392456 705.660025
-752.852642 -340.292748 706.283558
-752.842745 -342.193039 706.907091
-752.832847 -344.093331 707.530624
-752.822950 -345.993623 708.154157
-752.813053 -347.893914 708.777691
-752.803155 -349.794206 709.401224
-752.793258 -351.694498 710.024757
-752.783360 -353.594789 710.648290
-752.773463 -355.495081 711.271823
-752.763566 -357.395373 711.895357
-752.753668 -359.295664 712.518890
-752.743771 -361.195956 713.142423
-752.733874 -363.096248 713.765956
-752.723976 -364.996539 714.389489
-752.714079 -366.896831 715.013023
-752.704182 -368.797123 715.636556
-752.694284 -370.697414 716.260089
-752.684387 -372.597706 716.883622
-752.674490 -374.497997 717.507155
-752.664592 -376.398289 718.130689
-752.654695 -378.298581 718.754222
-752.644798 -380.198872 719.377755
-752.634900 -382.099164 720.001288
-752.625003 -383.999456 720.624821
-752.615105 -385.899747 721.248355
-752.605208 -387.800039 721.871888
-752.595311 -389.700331 722.495421
-752.585413 -391.600622 723.118954
-752.575516 -393.500914 723.742487
-752.565619 -395.401206 724.366021
-752.555721 -397.301497 724.989554
-752.545824 -399.201789 725.613087
-752.535927 -401.102081 726.236620
-752.526029 -403.002372 726.860153
-752.516132 -404.902664 727.483687
-752.506235 -406.802956 728.107220
-752.496337 -408.703247 728.730753
-752.486440 -410.603539 729.354286
-752.476543 -412.503831 729.977819
-752.466645 -414.404122 730.601353
-752.456748 -416.304414 731.224886
-752.446850 -418.204706 731.848419
-752.436953 -420.104997 732.471952
-752.427056 -422.005289 733.095485
-752.417158 -423.905581 733.719019
-752.407261 -425.805872 734.342552
-752.397364 -427.706164 734.966085
-752.387466 -429.606456 735.589618
-752.377569 -431.506747 736.213151
-752.367672 -433.407039 736.836685
-752.357774 -435.307331 737.460218
-752.347877 -437.207622 738.083751
-752.337980 -439.107914 738.707284
-752.328082 -441.008206 739.330817
-752.318185 -442.908497 739.954351
-752.308288 -444.808789 740.577884
-752.298390 -446.709081 741.201417
-752.288493 -448.609372 741.824950
-752.278596 -450.509664 742.448483
-752.268698 -452.409956 743.072017
-752.258801 -454.310247 743.695550
-752.248903 -456.210539 744.319083
-752.239006 -458.110831 744.942616
-752.229109 -460.011122 745.566149
-752.219211 -461.911414 746.189683
-752.209314 -463.811705 746.813216
-752.199417 -465.711997 747.436749
-752.189519 -467.612289 748.060282
-752.179622 -469.512580 748.683815
-752.169725 -471.412872 749.307349
-752.159827 -473.313164 749.930882
-752.149930 -475.213455 750.554415
-752.140033 -477.113747 751.177948
-752.130135 -479.014039 751.801481
-752.120238 -480.914330 752.425015
-752.110341 -482.814622 753.048548
-752.100443 -484.714914 753.672081
-752.090546 -486.615205 754.295614
-752.080648 -488.515497 754.919147
-752.070751 -490.415789 755.542681
-752.060854 -492.316080 756.166214
-752.050956 -494.216372 756.789747
-752.041059 -496.116664 757.413280
-752.031162 -498.016955 758.036813
-752.021264 -499.917247 758.660347
-752.011367 -501.817539 759.283880
-752.000000 -504.000000 760.000000
-752.442923 -505.274375 758.523590
-752.885846 -506.548750 757.047180
-753.328769 -507.823125 755.570769
-753.771692 -509.097501 754.094359
-754.214615 -510.371876 752.617949
-754.657538 -511.646251 751.141539
-755.100461 -512.920626 749.665128
-755.543385 -514.195001 748.188718
-755.986308 -515.469376 746.712308
-756.429231 -516.743751 745.235898
-756.872154 -518.018127 743.759488
-757.315077 -519.292502 742.283077
-757.758000 -520.566877 740.806667
-758.200923 -521.841252 739.330257
-758.643846 -523.115627 737.853847
-759.086769 -524.390002 736.377436
-759.529692 -525.664377 734.901026
-759.972615 -526.938753 733.424616
-760.415538 -528.213128 731.948206
-760.858461 -529.487503 730.471795
-761.301384 -530.761878 728.995385
-761.744307 -532.036253 727.518975
-762.187231 -533.310628 726.042565
-762.630154 -534.585003 724.566155
-763.073077 -535.859379 723.089744
-763.516000 -537.133754 721.613334
-763.958923 -538.408129 720.136924
-764.401846 -539.682504 718.660514
-764.844769 -540.956879 717.184103
-765.287692 -542.231254 715.707693
-765.730615 -543.505629 714.231283
-766.173538 -544.780005 712.754873
-766.616461 -546.054380 711.278463
-767.059384 -547.328755 709.802052
-767.502307 -548.603130 708.325642
-767.945230 -549.877505 706.849232
-768.388154 -551.151880 705.372822
-768.831077 -552.426255 703.896411
-769.274000 -553.700631 702.420001
-769.716923 -554.975006 700.943591
-770.159846 -556.249381 699.467181
-770.602769 -557.523756 697.990771
-771.045692 -558.798131 696.514360
-771.488615 -560.072506 695.037950
-771.931538 -561.346881 693.561540
-772.374461 -562.621257 692.085130
-772.817384 -563.895632 690.608719
-773.260307 -565.170007 689.132309
-773.703230 -566.444382 687.655899
-774.146153 -567.718757 686.179489
-774.589076 -568.993132 684.703079
-775.032000 -570.267507 683.226668
-775.474923 -571.541883 681.750258
-775.917846 -572.816258 680.273848
-776.360769 -574.090633 678.797438
-776.803692 -575.365008 677.321027
-777.246615 -576.639383 675.844617
-777.689538 -577.913758 674.368207
-778.132461 -579.188133 672.891797
-778.575384 -580.462509 671.415386
-779.018307 -581.736884 669.938976
-779.461230 -583.011259 668.462566
-779.904153 -584.285634 666.986156
-780.347076 -585.560009 665.509746
-780.789999 -586.834384 664.033335
-781.232922 -588.108759 662.556925
-781.675846 -589.383135 661.080515
-782.118769 -590.657510 659.604105
-782.561692 -591.931885 658.127694
-783.004615 -593.206260 656.651284
-783.447538 -594.480635 655.174874
-783.890461 -595.755010 653.698464
-784.333384 -597.029385 652.222054
-784.776307 -598.303761 650.745643
-785.219230 -599.578136 649.269233
-785.662153 -600.852511 647.792823
-786.105076 -602.126886 646.316413
-786.547999 -603.401261 644.840002
-786.990922 -604.675636 643.363592
-787.433845 -605.950011 641.887182
-787.876768 -607.224386 640.410772
-788.319692 -608.498762 638.934362
-788.762615 -609.773137 637.457951
-789.205538 -611.047512 635.981541
-789.648461 -612.321887 634.505131
-790.091384 -613.596262 633.028721
-790.534307 -614.870637 631.552310
-790.977230 -616.145012 630.075900
-791.420153 -617.419388 628.599490
-791.863076 -618.693763 627.123080
-792.305999 -619.968138 625.646669
-792.748922 -621.242513 624.170259
-793.191845 -622.516888 622.693849
-793.634768 -623.791263 621.217439
-794.077691 -625.065638 619.741029
-794.520614 -626.340014 618.264618
-794.963538 -627.614389 616.788208
-795.406461 -628.888764 615.311798
-795.849384 -630.163139 613.835388
-796.292307 -631.437514 612.358977
-796.735230 -632.711889 610.882567
-797.178153 -633.986264 609.406157
-797.621076 -635.260640 607.929747
-798.063999 -636.535015 606.453337
-798.506922 -637.809390 604.976926
-798.949845 -639.083765 603.500516
-799.392768 -640.358140 602.024106
-799.835691 -641.632515 600.547696
-800.278614 -642.906890 599.071285
-800.721537 -644.181266 597.594875
-801.164461 -645.455641 596.118465
-801.607384 -646.730016 594.642055
-802.050307 -648.004391 593.165645
-802.493230 -649.278766 591.689234
-802.936153 -650.553141 590.212824
-803.379076 -651.827516 588.736414
-803.821999 -653.101892 587.260004
-804.264922 -654.376267 585.783593
-804.707845 -655.650642 584.307183
-805.150768 -656.925017 582.830773
-805.593691 -658.199392 581.354363
-806.036614 -659.473767 579.877952
-806.479537 -660.748142 578.401542
-806.922460 -662.022518 576.925132
-807.365383 -663.296893 575.448722
-807.808307 -664.571268 573.972312
-808.251230 -665.845643 572.495901
-808.694153 -667.120018 571.019491
-809.137076 -668.394393 569.543081
-809.579999 -669.668768 568.066671
-810.022922 -670.943144 566.590260
-810.465845 -672.217519 565.113850
-810.908768 -673.491894 563.637440
-811.351691 -674.766269 562.161030
-811.794614 -676.040644 560.684620
-812.237537 -677.315019 559.208209
-812.680460 -678.589394 557.731799
-813.123383 -679.863770 556.255389
-813.566306 -681.138145 554.778979
-814.009229 -682.412520 553.302568
-814.452153 -683.686895 551.826158
-814.895076 -684.961270 550.349748
-815.337999 -686.235645 548.873338
-815.780922 -687.510020 547.396928
-816.223845 -688.784396 545.920517
-816.666768 -690.058771 544.444107
-817.109691 -691.333146 542.967697
-817.552614 -692.607521 541.491287
-817.995537 -693.881896 540.014876
-818.438460 -695.156271 538.538466
-818.881383 -696.430646 537.062056
-819.324306 -697.705022 535.585646
-819.767229 -698.979397 534.109236
-820.210152 -700.253772 532.632825
-820.653075 -701.528147 531.156415
-821.095999 -702.802522 529.680005
-821.538922 -704.076897 528.203595
-821.981845 -705.351272 526.727184
-822.424768 -706.625648 525.250774
-822.867691 -707.900023 523.774364
-823.310614 -709.174398 522.297954
-823.753537 -710.448773 520.821543
-824.196460 -711.723148 519.345133
-824.639383 -712.997523 517.868723
-825.082306 -714.271898 516.392313
-825.525229 -715.546274 514.915903
-825.968152 -716.820649 513.439492
-826.411075 -718.095024 511.963082
-826.853998 -719.369399 510.486672
-827.296921 -720.643774 509.010262
-827.739845 -721.918149 507.533851
-828.182768 -723.192524 506.057441
-828.625691 -724.466900 504.581031
-829.068614 -725.741275 503.104621
-829.511537 -727.015650 501.628211
-829.954460 -728.290025 500.151800
-830.397383 -729.564400 498.675390
-830.840306 -730.838775 497.198980
-831.283229 -732.113150 495.722570
-831.726152 -733.387526 494.246159
-832.169075 -734.661901 492.769749
-832.611998 -735.936276 491.293339
-833.054921 -737.210651 489.816929
-833.497844 -738.485026 488.340519
-833.940768 -739.759401 486.864108
-834.383691 -741.033776 485.387698
-834.826614 -742.308152 483.911288
-835.269537 -743.582527 482.434878
-835.712460 -744.856902 480.958467
-836.155383 -746.131277 479.482057
-836.598306 -747.405652 478.005647
-837.041229 -748.680027 476.529237
-837.484152 -749.954402 475.052826
-837.927075 -751.228778 473.576416
-838.369998 -752.503153 472.100006
-838.812921 -753.777528 470.623596
-839.255844 -755.051903 469.147186
-839.698767 -756.326278 467.670775
-840.141690 -757.600653 466.194365
-840.584614 -758.875028 464.717955
-841.027537 -760.149404 463.241545
-841.470460 -761.423779 461.765134
-841.913383 -762.698154 460.288724
-842.356306 -763.972529 458.812314
-842.799229 -765.246904 457.335904
-843.242152 -766.521279 455.859494
-843.685075 -767.795654 454.383083
-844.127998 -769.070030 452.906673
-844.570921 -770.344405 451.430263
-845.013844 -771.618780 449.953853
-845.456767 -772.893155 448.477442
-845.899690 -774.167530 447.001032
-846.342613 -775.441905 445.524622
-846.785536 -776.716280 444.048212
-847.228460 -777.990656 442.571802
-847.671383 -779.265031 441.095391
-848.114306 -780.539406 439.618981
-848.557229 -781.813781 438.142571
-849.000152 -783.088156 436.666161
-849.443075 -784.362531 435.189750
-849.885998 -785.636906 433.713340
-850.328921 -786.911282 432.236930
-850.771844 -788.185657 430.760520
-851.214767 -789.460032 429.284110
-851.657690 -790.734407 427.807699
-852.100613 -792.008782 426.331289
-852.543536 -793.283157 424.854879
-852.986459 -794.557532 423.378469
-853.429382 -795.831908 421.902058
-853.872306 -797.106283 420.425648
-854.315229 -798.380658 418.949238
-854.758152 -799.655033 417.472828
-855.201075 -800.929408 415.996417
-855.643998 -802.203783 414.520007
-856.086921 -803.478158 413.043597
-856.529844 -804.752533 411.567187
-856.972767 -806.026909 410.090777
-857.415690 -807.301284 408.614366
-857.858613 -808.575659 407.137956
-858.301536 -809.850034 405.661546
-858.744459 -811.124409 404.185136
-859.187382 -812.398784 402.708725
-859.630305 -813.673159 401.232315
-860.073229 -814.947535 399.755905
-860.516152 -816.221910 398.279495
-860.959075 -817.496285 396.803085
-861.401998 -818.770660 395.326674
-861.844921 -820.045035 393.850264
-862.287844 -821.319410 392.373854
-862.730767 -822.593785 390.897444
-863.173690 -823.868161 389.421033
-863.616613 -825.142536 387.944623
-864.059536 -826.416911 386.468213
-864.502459 -827.691286 384.991803
-864.945382 -828.965661 383.515393
-865.388305 -830.240036 382.038982
-865.831228 -831.514411 380.562572
-866.274151 -832.788787 379.086162
-866.717075 -834.063162 377.609752
-867.159998 -835.337537 376.133341
-867.602921 -836.611912 374.656931
-868.045844 -837.886287 373.180521
-868.488767 -839.160662 371.704111
-868.931690 -840.435037 370.227700
-869.374613 -841.709413 368.751290
-869.817536 -842.983788 367.274880
-870.260459 -844.258163 365.798470
-870.703382 -845.532538 364.322060
-871.146305 -846.806913 362.845649
-871.589228 -848.081288 361.369239
-872.032151 -849.355663 359.892829
-872.475074 -850.630039 358.416419
-872.917997 -851.904414 356.940008
-873.360921 -853.178789 355.463598
-873.803844 -854.453164 353.987188
-874.246767 -855.727539 352.510778
-874.689690 -857.001914 351.034368
-875.132613 -858.276289 349.557957
-875.575536 -859.550665 348.081547
-876.018459 -860.825040 346.605137
-876.461382 -862.099415 345.128727
-876.904305 -863.373790 343.652316
-877.347228 -864.648165 342.175906
-877.790151 -865.922540 340.699496
-878.233074 -867.196915 339.223086
-878.675997 -868.471291 337.746676
-879.118920 -869.745666 336.270265
-879.561843 -871.020041 334.793855
-880.004767 -872.294416 333.317445
-880.447690 -873.568791 331.841035
-880.890613 -874.843166 330.364624
-881.333536 -876.117541 328.888214
-881.776459 -877.391917 327.411804
-882.219382 -878.666292 325.935394
-882.662305 -879.940667 324.458983
-883.105228 -881.215042 322.982573
-883.548151 -882.489417 321.506163
-883.991074 -883.763792 320.029753
-884.433997 -885.038167 318.553343
-884.876920 -886.312543 317.076932
-885.319843 -887.586918 315.600522
-885.762766 -888.861293 314.124112
-886.205689 -890.135668 312.647702
-886.648613 -891.410043 311.171291
-887.091536 -892.684418 309.694881
-887.534459 -893.958793 308.218471
-887.977382 -895.233169 306.742061
-888.420305 -896.507544 305.265651
-888.863228 -897.781919 303.789240
-889.306151 -899.056294 302.312830
-889.749074 -900.330669 300.836420
-890.191997 -901.605044 299.360010
-890.634920 -902.879419 297.883599
-891.077843 -904.153795 296.407189
-891.520766 -905.428170 294.930779
-891.963689 -906.702545 293.454369
-892.406612 -907.976920 291.977959
-892.849536 -909.251295 290.501548
-893.292459 -910.525670 289.025138
-893.735382 -911.800045 287.548728
-894.178305 -913.074421 286.072318
-894.621228 -914.348796 284.595907
-895.064151 -915.623171 283.119497
-895.507074 -916.897546 281.643087
-895.949997 -918.171921 280.166677
-896.392920 -919.446296 278.690267
-896.835843 -920.720671 277.213856
-897.278766 -921.995047 275.737446
-897.721689 -923.269422 274.261036
-898.164612 -924.543797 272.784626
-898.607535 -925.818172 271.308215
-899.050458 -927.092547 269.831805
-899.493382 -928.366922 268.355395
-899.936305 -929.641297 266.878985
-900.379228 -930.915673 265.402574
-900.822151 -932.190048 263.926164
-901.265074 -933.464423 262.449754
-901.707997 -934.738798 260.973344
-902.150920 -936.013173 259.496934
-902.593843 -937.287548 258.020523
-903.036766 -938.561923 256.544113
-903.479689 -939.836299 255.067703
-903.922612 -941.110674 253.591293
-904.365535 -942.385049 252.114882
-904.808458 -943.659424 250.638472
-905.251381 -944.933799 249.162062
-905.694304 -946.208174 247.685652
-906.137228 -947.482549 246.209242
-906.580151 -948.756925 244.732831
-907.023074 -950.031300 243.256421
-907.465997 -951.305675 241.780011
-907.908920 -952.580050 240.303601
-908.351843 -953.854425 238.827190
-908.794766 -955.128800 237.350780
-909.237689 -956.403175 235.874370
-909.680612 -957.677551 234.397960
-910.123535 -958.951926 232.921550
-910.566458 -960.226301 231.445139
-911.009381 -961.500676 229.968729
-911.452304 -962.775051 228.492319
-911.895227 -964.049426 227.015909
-912.338150 -965.323801 225.539498
-912.781074 -966.598177 224.063088
-913.223997 -967.872552 222.586678
-913.666920 -969.146927 221.110268
-914.109843 -970.421302 219.633857
-914.552766 -971.695677 218.157447
-914.995689 -972.970052 216.681037
-915.438612 -974.244427 215.204627
-915.881535 -975.518803 213.728217
-916.324458 -976.793178 212.251806
-916.767381 -978.067553 210.775396
-917.210304 -979.341928 209.298986
-917.653227 -980.616303 207.822576
-918.096150 -981.890678 206.346165
-918.539073 -983.165053 204.869755
-918.981996 -984.439429 203.393345
-919.424920 -985.713804 201.916935
-919.867843 -986.988179 200.440525
-920.310766 -988.262554 198.964114
-920.753689 -989.536929 197.487704
-921.196612 -990.811304 196.011294
-921.639535 -992.085679 194.534884
-922.082458 -993.360055 193.058473
-922.525381 -994.634430 191.582063
-922.968304 -995.908805 190.105653
-923.411227 -997.183180 188.629243
-923.854150 -998.457555 187.152833
-924.297073 -999.731930 185.676422
-924.739996 -1001.006305 184.200012
-925.182919 -1002.280681 182.723602
-925.625843 -1003.555056 181.247192
-926.068766 -1004.829431 179.770781
-926.511689 -1006.103806 178.294371
-926.954612 -1007.378181 176.817961
-927.397535 -1008.652556 175.341551
-927.840458 -1009.926931 173.865141
-928.283381 -1011.201306 172.388730
-928.726304 -1012.475682 170.912320
-929.169227 -1013.750057 169.435910
-929.612150 -1015.024432 167.959500
-930.055073 -1016.298807 166.483089
-930.497996 -1017.573182 165.006679
-930.940919 -1018.847557 163.530269
-931.383842 -1020.121932 162.053859
-931.826765 -1021.396308 160.577448
-932.269689 -1022.670683 159.101038
-932.712612 -1023.945058 157.624628
-933.155535 -1025.219433 156.148218
-933.598458 -1026.493808 154.671808
-934.041381 -1027.768183 153.195397
-934.484304 -1029.042558 151.718987
-934.927227 -1030.316934 150.242577
-935.370150 -1031.591309 148.766167
-935.813073 -1032.865684 147.289756
-936.255996 -1034.140059 145.813346
-936.698919 -1035.414434 144.336936
-937.141842 -1036.688809 142.860526
-937.584765 -1037.963184 141.384116
-938.027688 -1039.237560 139.907705
-938.470611 -1040.511935 138.431295
-938.913535 -1041.786310 136.954885
-939.356458 -1043.060685 135.478475
-939.799381 -1044.335060 134.002064
-940.242304 -1045.609435 132.525654
-940.685227 -1046.883810 131.049244
-941.128150 -1048.158186 129.572834
-941.571073 -1049.432561 128.096424
-942.013996 -1050.706936 126.620013
-942.456919 -1051.981311 125.143603
-942.899842 -1053.255686 123.667193
-943.342765 -1054.530061 122.190783
-943.785688 -1055.804436 120.714372
-944.228611 -1057.078812 119.237962
-944.671534 -1058.353187 117.761552
-945.114457 -1059.627562 116.285142
-945.557381 -1060.901937 114.808731
-946.000304 -1062.176312 113.332321
-946.443227 -1063.450687 111.855911
-946.886150 -1064.725062 110.379501
-947.329073 -1065.999438 108.903091
-947.771996 -1067.273813 107.426680
-948.214919 -1068.548188 105.950270
-948.657842 -1069.822563 104.473860
-949.100765 -1071.096938 102.997450
-949.543688 -1072.371313 101.521039
-949.986611 -1073.645688 100.044629
-950.429534 -1074.920064 98.568219
-950.872457 -1076.194439 97.091809
-951.315380 -1077.468814 95.615399
-951.758304 -1078.743189 94.138988
-952.201227 -1080.017564 92.662578
-952.644150 -1081.291939 91.186168
-953.087073 -1082.566314 89.709758
-953.529996 -1083.840690 88.233347
-953.972919 -1085.115065 86.756937
-954.415842 -1086.389440 85.280527
-954.858765 -1087.663815 83.804117
-955.301688 -1088.938190 82.327707
-955.744611 -1090.212565 80.851296
-956.187534 -1091.486940 79.374886
-956.630457 -1092.761316 77.898476
-957.073380 -1094.035691 76.422066
-957.516303 -1095.310066 74.945655
-957.959226 -1096.584441 73.469245
-958.402150 -1097.858816 71.992835
-958.845073 -1099.133191 70.516425
-959.287996 -1100.407566 69.040014
-959.730919 -1101.681942 67.563604
-960.173842 -1102.956317 66.087194
-960.616765 -1104.230692 64.610784
-961.059688 -1105.505067 63.134374
-961.502611 -1106.779442 61.657963
-961.945534 -1108.053817 60.181553
-962.388457 -1109.328192 58.705143
-962.831380 -1110.602568 57.228733
-963.274303 -1111.876943 55.752322
-963.717226 -1113.151318 54.275912
-964.160149 -1114.425693 52.799502
-964.603072 -1115.700068 51.323092
-965.045996 -1116.974443 49.846682
-965.488919 -1118.248818 48.370271
-965.931842 -1119.523194 46.893861
-966.374765 -1120.797569 45.417451
-966.817688 -1122.071944 43.941041
-967.260611 -1123.346319 42.464630
-967.703534 -1124.620694 40.988220
-968.146457 -1125.895069 39.511810
-968.589380 -1127.169444 38.035400
-969.032303 -1128.443820 36.558990
-969.475226 -1129.718195 35.082579
-969.918149 -1130.992570 33.606169
-970.361072 -1132.266945 32.129759
-970.803995 -1133.541320 30.653349
-971.246918 -1134.815695 29.176938
-971.689842 -1136.090070 27.700528
-972.132765 -1137.364446 26.224118
-972.575688 -1138.638821 24.747708
-973.018611 -1139.913196 23.271298
-973.461534 -1141.187571 21.794887
-973.904457 -1142.461946 20.318477
-974.347380 -1143.736321 18.842067
-974.790303 -1145.010696 17.365657
-975.233226 -1146.285072 15.889246
-975.676149 -1147.559447 14.412836
-976.119072 -1148.833822 12.936426
-976.561995 -1150.108197 11.460016
-977.004918 -1151.382572 9.983605
-977.447841 -1152.656947 8.507195
-977.890764 -1153.931322 7.030785
-978.333688 -1155.205698 5.554375
-978.776611 -1156.480073 4.077965
-979.219534 -1157.754448 2.601554
-980.000000 -1160.000000 0.000000
-980.894427 -1161.788854 0.000000
-981.788854 -1163.577709 0.000000
-982.683282 -1165.366563 0.000000
-984.000000 -1168.000000 0.000000
-984.000000 -1169.976024 0.308754
-984.000000 -1171.952048 0.617508
-984.000000 -1173.928072 0.926261
-984.000000 -1175.904096 1.235015
-984.000000 -1177.880120 1.543769
-984.000000 -1179.856144 1.852523
-984.000000 -1181.832168 2.161276
-984.000000 -1183.808193 2.470030
-984.000000 -1185.784217 2.778784
-984.000000 -1187.760241 3.087538
-984.000000 -1189.736265 3.396291
-984.000000 -1191.712289 3.705045
-984.000000 -1193.688313 4.013799
-984.000000 -1195.664337 4.322553
-984.000000 -1197.640361 4.631306
-984.000000 -1199.616385 4.940060
-984.000000 -1201.592409 5.248814
-984.000000 -1203.568433 5.557568
-984.000000 -1205.544457 5.866321
-984.000000 -1207.520481 6.175075
-984.000000 -1209.496505 6.483829
-984.000000 -1211.472529 6.792583
-984.000000 -1213.448554 7.101336
-984.000000 -1215.424578 7.410090
-984.000000 -1217.400602 7.718844
-984.000000 -1219.376626 8.027598
-984.000000 -1221.352650 8.336352
-984.000000 -1223.328674 8.645105
-984.000000 -1225.304698 8.953859
-984.000000 -1227.280722 9.262613
-984.000000 -1229.256746 9.571367
-984.000000 -1231.232770 9.880120
-984.000000 -1233.208794 10.188874
-984.000000 -1235.184818 10.497628
-984.000000 -1237.160842 10.806382
-984.000000 -1239.136866 11.115135
-984.000000 -1241.112890 11.423889
-984.000000 -1243.088915 11.732643
-984.000000 -1245.064939 12.041397
-984.000000 -1247.040963 12.350150
-984.000000 -1249.016987 12.658904
-984.000000 -1250.993011 12.967658
-984.000000 -1252.969035 13.276412
-984.000000 -1254.945059 13.585165
-984.000000 -1256.921083 13.893919
-984.000000 -1258.897107 14.202673
-984.000000 -1260.873131 14.511427
-984.000000 -1262.849155 14.820181
-984.000000 -1264.825179 15.128934
-984.000000 -1266.801203 15.437688
-984.000000 -1268.777227 15.746442
-984.000000 -1270.753252 16.055196
-984.000000 -1272.729276 16.363949
-984.000000 -1274.705300 16.672703
-984.000000 -1276.681324 16.981457
-984.000000 -1278.657348 17.290211
-984.000000 -1280.633372 17.598964
-984.000000 -1282.609396 17.907718
-984.000000 -1284.585420 18.216472
-984.000000 -1286.561444 18.525226
