-1733.593781 -1326.076233 -174.115682
-1733.233596 -1327.917174 -174.809370
-1732.873412 -1329.758115 -175.503058
-1732.513228 -1331.599056 -176.196746
-1732.153044 -1333.439997 -176.890434
-1731.792860 -1335.280939 -177.584122
-1731.432676 -1337.121880 -178.277810
-1731.072492 -1338.962821 -178.971498
-1730.712307 -1340.803762 -179.665186
-1730.352123 -1342.644703 -180.358874
-1729.991939 -1344.485644 -181.052562
-1729.631755 -1346.326586 -181.746250
-1729.271571 -1348.167527 -182.439938
-1728.911387 -1350.008468 -183.133626
-1728.551203 -1351.849409 -183.827314
-1728.191018 -1353.690350 -184.521002
-1727.830834 -1355.531291 -185.214689
-1727.470650 -1357.372233 -185.908377
-1727.110466 -1359.213174 -186.602065
-1726.750282 -1361.054115 -187.295753
-1726.390098 -1362.895056 -187.989441
-1726.029914 -1364.735997 -188.683129
-1725.669729 -1366.576938 -189.376817
-1725.309545 -1368.417880 -190.070505
-1724.949361 -1370.258821 -190.764193
-1724.589177 -1372.099762 -191.457881
-1724.228993 -1373.940703 -192.151569
-1723.868809 -1375.781644 -192.845257
-1723.508625 -1377.622585 -193.538945
-1723.148440 -1379.463526 -194.232633
-1722.788256 -1381.304468 -194.926321
-1722.428072 -1383.145409 -195.620009
-1722.067888 -1384.986350 -196.313697
-1721.707704 -1386.827291 -197.007385
-1721.347520 -1388.668232 -197.701073
-1720.987336 -1390.509173 -198.394761
-1720.627151 -1392.350115 -199.088449
-1720.266967 -1394.191056 -199.782137
-1719.906783 -1396.031997 -200.475825
-1719.546599 -1397.872938 -201.169513
-1719.186415 -1399.713879 -201.863201
-1718.826231 -1401.554820 -202.556889
-1718.466047 -1403.395762 -203.250577
-1718.105862 -1405.236703 -203.944265
-1717.745678 -1407.077644 -204.637953
-1717.385494 -1408.918585 -205.331641
-1717.025310 -1410.759526 -206.025329
-1716.665126 -1412.600467 -206.719017
-1716.000000 -1416.000000 -208.000000
-1716.000000 -1418.000000 -208.000000
-1716.000000 -1420.000000 -208.000000
-1716.000000 -1422.000000 -208.000000
-1716.000000 -1424.000000 -208.000000
-1716.000000 -1426.000000 -208.000000
-1716.000000 -1428.000000 -208.000000
-1716.000000 -1430.000000 -208.000000
-1716.000000 -1432.000000 -208.000000
-1716.000000 -1434.000000 -208.000000
-1716.000000 -1436.000000 -208.000000
-1716.000000 -1438.000000 -208.000000
-1716.000000 -1440.000000 -208.000000
-1716.000000 -1442.000000 -208.000000
-1716.000000 -1444.000000 -208.000000
-1716.000000 -1446.000000 -208.000000
-1716.000000 -1448.000000 -208.000000
-1716.000000 -1450.000000 -208.000000
-1716.000000 -1452.000000 -208.000000
-1716.000000 -1454.000000 -208.000000
-1716.000000 -1456.000000 -208.000000
-1716.000000 -1458.000000 -208.000000
-1716.000000 -1460.000000 -208.000000
-1716.000000 -1462.000000 -208.000000
-1716.000000 -1464.000000 -208.000000
-1716.000000 -1466.000000 -208.000000
-1716.000000 -1468.000000 -208.000000
-1716.000000 -1470.000000 -208.000000
-1716.000000 -1472.000000 -208.000000
-1716.000000 -1474.000000 -208.000000
-1716.000000 -1476.000000 -208.000000
-1716.000000 -1478.000000 -208.000000
-1716.000000 -1480.000000 -208.000000
-1716.000000 -1482.000000 -208.000000
-1716.000000 -1484.000000 -208.000000
-1716.000000 -1486.000000 -208.000000
-1716.000000 -1488.000000 -208.000000
-1716.000000 -1490.000000 -208.000000
-1716.000000 -1492.000000 -208.000000
-1716.000000 -1494.000000 -208.000000
-1716.000000 -1496.000000 -208.000000
-1716.000000 -1498.000000 -208.000000
-1716.000000 -1500.000000 -208.000000
-1716.000000 -1502.000000 -208.000000
-1716.000000 -1504.000000 -208.000000
-1716.000000 -1506.000000 -208.000000
-1716.000000 -1508.000000 -208.000000
-1716.000000 -1510.000000 -208.000000
-1716.000000 -1512.000000 -208.000000
-1716.000000 -1514.000000 -208.000000
-1716.000000 -1516.000000 -208.000000
-1716.000000 -1518.000000 -208.000000
-1716.000000 -1520.000000 -208.000000
-1716.000000 -1522.000000 -208.000000
-1716.000000 -1524.000000 -208.000000
-1716.000000 -1526.000000 -208.000000
-1716.000000 -1528.000000 -208.000000
-1716.000000 -1530.000000 -208.000000
-1716.000000 -1532.000000 -208.000000
-1716.000000 -1534.000000 -208.000000
-1716.000000 -1536.000000 -208.000000
-1716.000000 -1538.000000 -208.000000
-1716.000000 -1540.000000 -208.000000
-1716.000000 -1542.000000 -208.000000
-1716.000000 -1544.000000 -208.000000
-1716.000000 -1546.000000 -208.000000
-1716.000000 -1548.000000 -208.000000
-1716.000000 -1550.000000 -208.000000
-1716.000000 -1552.000000 -208.000000
-1716.000000 -1554.000000 -208.000000
-1716.000000 -1556.000000 -208.000000
-1716.000000 -1558.000000 -208.000000
-1716.000000 -1560.000000 -208.000000
-1716.000000 -1562.000000 -208.000000
-1716.000000 -1564.000000 -208.000000
-1716.000000 -1566.000000 -208.000000
-1716.000000 -1568.000000 -208.000000
-1716.000000 -1570.000000 -208.000000
-1716.000000 -1572.000000 -208.000000
-1716.000000 -1574.000000 -208.000000
-1716.000000 -1576.000000 -208.000000
-1716.000000 -1578.000000 -208.000000
-1716.000000 -1580.000000 -208.000000
-1716.000000 -1582.000000 -208.000000
-1716.000000 -1584.000000 -208.000000
-1716.000000 -1586.000000 -208.000000
-1716.000000 -1588.000000 -208.000000
-1716.000000 -1590.000000 -208.000000
-1716.000000 -1592.000000 -208.000000
-1716.000000 -1594.000000 -208.000000
-1716.000000 -1596.000000 -208.000000
-1716.000000 -1598.000000 -208.000000
-1716.000000 -1600.000000 -208.000000
-1716.000000 -1602.000000 -208.000000
-1716.000000 -1604.000000 -208.000000
-1716.000000 -1606.000000 -208.000000
-1716.000000 -1608.000000 -208.000000
-1716.000000 -1610.000000 -208.000000
-1716.000000 -1612.000000 -208.000000
-1716.000000 -1614.000000 -208.000000
-1716.000000 -1616.000000 -208.000000
-1716.000000 -1618.000000 -208.000000
-1716.000000 -1620.000000 -208.000000
-1716.000000 -1622.000000 -208.000000
-1716.000000 -1624.000000 -208.000000
-1716.000000 -1626.000000 -208.000000
-1716.000000 -1628.000000 -208.000000
-1716.000000 -1630.000000 -208.000000
-1716.000000 -1632.000000 -208.000000
-1716.000000 -1634.000000 -208.000000
-1716.000000 -1636.000000 -208.000000
-1716.000000 -1638.000000 -208.000000
-1716.000000 -1640.000000 -208.000000
-1716.000000 -1642.000000 -208.000000
-1716.000000 -1644.000000 -208.000000
-1716.000000 -1646.000000 -208.000000
-1716.000000 -1648.000000 -208.000000
-1716.000000 -1650.000000 -208.000000
-1716.000000 -1652.000000 -208.000000
-1716.000000 -1654.000000 -208.000000
-1716.000000 -1656.000000 -208.000000
-1716.000000 -1658.000000 -208.000000
-1716.000000 -1660.000000 -208.000000
-1716.000000 -1662.000000 -208.000000
-1716.000000 -1664.000000 -208.000000
-1716.000000 -1666.000000 -208.000000
-1716.000000 -1668.000000 -208.000000
-1716.000000 -1670.000000 -208.000000
-1716.000000 -1672.000000 -208.000000
-1716.000000 -1674.000000 -208.000000
-1716.000000 -1676.000000 -208.000000
-1716.000000 -1678.000000 -208.000000
-1716.000000 -1680.000000 -208.000000
-1716.000000 -1682.000000 -208.000000
-1716.000000 -1684.000000 -208.000000
-1716.000000 -1686.000000 -208.000000
-1716.000000 -1688.000000 -208.000000
-1716.000000 -1690.000000 -208.000000
-1716.000000 -1692.000000 -208.000000
-1716.000000 -1694.000000 -208.000000
-1716.000000 -1696.000000 -208.000000
-1716.000000 -1698.000000 -208.000000
-1716.000000 -1700.000000 -208.000000
-1716.000000 -1702.000000 -208.000000
-1716.000000 -1704.000000 -208.000000
-1716.000000 -1706.000000 -208.000000
-1716.000000 -1708.000000 -208.000000
-1716.000000 -1710.000000 -208.000000
-1716.000000 -1712.000000 -208.000000
-1716.000000 -1714.000000 -208.000000
-1716.000000 -1716.000000 -208.000000
-1716.000000 -1718.000000 -208.000000
-1716.000000 -1720.000000 -208.000000
-1716.000000 -1722.000000 -208.000000
-1716.000000 -1724.000000 -208.000000
-1716.000000 -1726.000000 -208.000000
-1716.000000 -1728.000000 -208.000000
-1716.000000 -1730.000000 -208.000000
-1716.000000 -1732.000000 -208.000000
-1716.000000 -1734.000000 -208.000000
-1716.000000 -1736.000000 -208.000000
-1716.000000 -1738.000000 -208.000000
-1716.000000 -1740.000000 -208.000000
-1716.000000 -1742.000000 -208.000000
-1716.000000 -1744.000000 -208.000000
-1716.000000 -1746.000000 -208.000000
-1716.000000 -1748.000000 -208.000000
-1716.000000 -1750.000000 -208.000000
-1716.000000 -1752.000000 -208.000000
-1716.000000 -1754.000000 -208.000000
-1716.000000 -1756.000000 -208.000000
-1716.000000 -1758.000000 -208.000000
-1716.000000 -1760.000000 -208.000000
-1716.000000 -1762.000000 -208.000000
-1716.000000 -1764.000000 -208.000000
-1716.000000 -1766.000000 -208.000000
-1716.000000 -1768.000000 -208.000000
-1716.000000 -1770.000000 -208.000000
-1716.000000 -1772.000000 -208.000000
-1716.000000 -1774.000000 -208.000000
-1716.000000 -1776.000000 -208.000000
-1716.000000 -1778.000000 -208.000000
-1716.000000 -1780.000000 -208.000000
-1716.000000 -1782.000000 -208.000000
-1716.000000 -1784.000000 -208.000000
-1716.000000 -1786.000000 -208.000000
-1716.000000 -1788.000000 -208.000000
-1716.000000 -1790.000000 -208.000000
-1716.000000 -1792.000000 -208.000000
-1716.000000 -1794.000000 -208.000000
-1716.000000 -1796.000000 -208.000000
-1716.000000 -1798.000000 -208.000000
-1716.000000 -1800.000000 -208.000000
-1716.000000 -1802.000000 -208.000000
-1716.000000 -1804.000000 -208.000000
-1716.000000 -1806.000000 -208.000000
-1716.000000 -1808.000000 -208.000000
-1716.000000 -1810.000000 -208.000000
-1716.000000 -1812.000000 -208.000000
-1716.000000 -1814.000000 -208.000000
-1716.000000 -1816.000000 -208.000000
-1716.000000 -1818.000000 -208.000000
-1716.000000 -1820.000000 -208.000000
-1716.000000 -1822.000000 -208.000000
-1716.000000 -1824.000000 -208.000000
-1716.000000 -1826.000000 -208.000000
-1716.000000 -1828.000000 -208.000000
-1716.000000 -1830.000000 -208.000000
-1716.000000 -1832.000000 -208.000000
-1716.000000 -1834.000000 -208.000000
-1716.000000 -1836.000000 -208.000000
-1716.000000 -1838.000000 -208.000000
-1716.000000 -1840.000000 -208.000000
-1716.000000 -1842.000000 -208.000000
-1716.000000 -1844.000000 -208.000000
-1716.000000 -1846.000000 -208.000000
-1716.000000 -1848.000000 -208.000000
-1716.000000 -1850.000000 -208.000000
-1716.000000 -1852.000000 -208.000000
-1716.000000 -1854.000000 -208.000000
-1716.000000 -1856.000000 -208.000000
-1716.000000 -1858.000000 -208.000000
-1716.000000 -1860.000000 -208.000000
-1716.000000 -1862.000000 -208.000000
-1716.000000 -1864.000000 -208.000000
-1716.000000 -1866.000000 -208.000000
-1716.000000 -1868.000000 -208.000000
-1716.000000 -1872.000000 -208.000000
-1714.000042 -1872.012945 -208.000000
-1712.000084 -1872.025889 -208.000000
-1710.000126 -1872.038834 -208.000000
-1708.000168 -1872.051779 -208.000000
-1706.000209 -1872.064724 -208.000000
-1704.000251 -1872.077668 -208.000000
-1702.000293 -1872.090613 -208.000000
-1700.000335 -1872.103558 -208.000000
-1698.000377 -1872.116502 -208.000000
-1696.000419 -1872.129447 -208.000000
-1694.000461 -1872.142392 -208.000000
-1692.000503 -1872.155337 -208.000000
-1690.000545 -1872.168281 -208.000000
-1688.000586 -1872.181226 -208.000000
-1686.000628 -1872.194171 -208.000000
-1684.000670 -1872.207115 -208.000000
-1682.000712 -1872.220060 -208.000000
-1680.000754 -1872.233005 -208.000000
-1678.000796 -1872.245950 -208.000000
-1676.000838 -1872.258894 -208.000000
-1674.000880 -1872.271839 -208.000000
-1672.000922 -1872.284784 -208.000000
-1670.000964 -1872.297728 -208.000000
-1668.001005 -1872.310673 -208.000000
-1666.001047 -1872.323618 -208.000000
-1664.001089 -1872.336563 -208.000000
-1662.001131 -1872.349507 -208.000000
-1660.001173 -1872.362452 -208.000000
-1658.001215 -1872.375397 -208.000000
-1656.001257 -1872.388341 -208.000000
-1654.001299 -1872.401286 -208.000000
-1652.001341 -1872.414231 -208.000000
-1650.001382 -1872.427176 -208.000000
-1648.001424 -1872.440120 -208.000000
-1646.001466 -1872.453065 -208.000000
-1644.001508 -1872.466010 -208.000000
-1642.001550 -1872.478954 -208.000000
-1640.001592 -1872.491899 -208.000000
-1638.001634 -1872.504844 -208.000000
-1636.001676 -1872.517789 -208.000000
-1634.001718 -1872.530733 -208.000000
-1632.001759 -1872.543678 -208.000000
-1630.001801 -1872.556623 -208.000000
-1628.001843 -1872.569567 -208.000000
-1626.001885 -1872.582512 -208.000000
-1624.001927 -1872.595457 -208.000000
-1622.001969 -1872.608401 -208.000000
-1620.002011 -1872.621346 -208.000000
-1618.002053 -1872.634291 -208.000000
-1616.002095 -1872.647236 -208.000000
-1614.002136 -1872.660180 -208.000000
-1612.002178 -1872.673125 -208.000000
-1610.002220 -1872.686070 -208.000000
-1608.002262 -1872.699014 -208.000000
-1606.002304 -1872.711959 -208.000000
-1604.002346 -1872.724904 -208.000000
-1602.002388 -1872.737849 -208.000000
-1600.002430 -1872.750793 -208.000000
-1598.002472 -1872.763738 -208.000000
-1596.002514 -1872.776683 -208.000000
-1594.002555 -1872.789627 -208.000000
-1592.002597 -1872.802572 -208.000000
-1590.002639 -1872.815517 -208.000000
-1588.002681 -1872.828462 -208.000000
-1586.002723 -1872.841406 -208.000000
-1584.002765 -1872.854351 -208.000000
-1582.002807 -1872.867296 -208.000000
-1580.002849 -1872.880240 -208.000000
-1578.002891 -1872.893185 -208.000000
-1576.002932 -1872.906130 -208.000000
-1574.002974 -1872.919075 -208.000000
-1572.003016 -1872.932019 -208.000000
-1570.003058 -1872.944964 -208.000000
-1568.003100 -1872.957909 -208.000000
-1566.003142 -1872.970853 -208.000000
-1564.003184 -1872.983798 -208.000000
-1562.003226 -1872.996743 -208.000000
-1560.003268 -1873.009688 -208.000000
-1558.003309 -1873.022632 -208.000000
-1556.003351 -1873.035577 -208.000000
-1554.003393 -1873.048522 -208.000000
-1552.003435 -1873.061466 -208.000000
-1550.003477 -1873.074411 -208.000000
-1548.003519 -1873.087356 -208.000000
-1546.003561 -1873.100301 -208.000000
-1544.003603 -1873.113245 -208.000000
-1542.003645 -1873.126190 -208.000000
-1540.003686 -1873.139135 -208.000000
-1538.003728 -1873.152079 -208.000000
-1536.003770 -1873.165024 -208.000000
-1534.003812 -1873.177969 -208.000000
-1532.003854 -1873.190914 -208.000000
-1530.003896 -1873.203858 -208.000000
-1528.003938 -1873.216803 -208.000000
-1526.003980 -1873.229748 -208.000000
-1524.004022 -1873.242692 -208.000000
-1522.004064 -1873.255637 -208.000000
-1520.004105 -1873.268582 -208.000000
-1518.004147 -1873.281527 -208.000000
-1516.004189 -1873.294471 -208.000000
-1514.004231 -1873.307416 -208.000000
-1512.004273 -1873.320361 -208.000000
-1510.004315 -1873.333305 -208.000000
-1508.004357 -1873.346250 -208.000000
-1506.004399 -1873.359195 -208.000000
-1504.004441 -1873.372140 -208.000000
-1502.004482 -1873.385084 -208.000000
-1500.004524 -1873.398029 -208.000000
-1498.004566 -1873.410974 -208.000000
-1496.004608 -1873.423918 -208.000000
-1494.004650 -1873.436863 -208.000000
-1492.004692 -1873.449808 -208.000000
-1490.004734 -1873.462753 -208.000000
-1488.004776 -1873.475697 -208.000000
-1486.004818 -1873.488642 -208.000000
-1484.004859 -1873.501587 -208.000000
-1482.004901 -1873.514531 -208.000000
-1480.004943 -1873.527476 -208.000000
-1478.004985 -1873.540421 -208.000000
-1476.005027 -1873.553366 -208.000000
-1474.005069 -1873.566310 -208.000000
-1472.005111 -1873.579255 -208.000000
-1470.005153 -1873.592200 -208.000000
-1468.005195 -1873.605144 -208.000000
-1466.005236 -1873.618089 -208.000000
-1464.005278 -1873.631034 -208.000000
-1462.005320 -1873.643979 -208.000000
-1460.005362 -1873.656923 -208.000000
-1458.005404 -1873.669868 -208.000000
-1456.005446 -1873.682813 -208.000000
-1454.005488 -1873.695757 -208.000000
-1452.005530 -1873.708702 -208.000000
-1450.005572 -1873.721647 -208.000000
-1448.005614 -1873.734591 -208.000000
-1446.005655 -1873.747536 -208.000000
-1444.005697 -1873.760481 -208.000000
-1442.005739 -1873.773426 -208.000000
-1440.005781 -1873.786370 -208.000000
-1438.005823 -1873.799315 -208.000000
-1436.005865 -1873.812260 -208.000000
-1434.005907 -1873.825204 -208.000000
-1432.005949 -1873.838149 -208.000000
-1430.005991 -1873.851094 -208.000000
-1428.006032 -1873.864039 -208.000000
-1426.006074 -1873.876983 -208.000000
-1424.006116 -1873.889928 -208.000000
-1422.006158 -1873.902873 -208.000000
-1420.006200 -1873.915817 -208.000000
-1418.006242 -1873.928762 -208.000000
-1416.006284 -1873.941707 -208.000000
-1414.006326 -1873.954652 -208.000000
-1412.006368 -1873.967596 -208.000000
-1410.006409 -1873.980541 -208.000000
-1408.006451 -1873.993486 -208.000000
-1406.006493 -1874.006430 -208.000000
-1404.006535 -1874.019375 -208.000000
-1402.006577 -1874.032320 -208.000000
-1400.006619 -1874.045265 -208.000000
-1398.006661 -1874.058209 -208.000000
-1396.006703 -1874.071154 -208.000000
-1394.006745 -1874.084099 -208.000000
-1392.006786 -1874.097043 -208.000000
-1390.006828 -1874.109988 -208.000000
-1388.006870 -1874.122933 -208.000000
-1386.006912 -1874.135878 -208.000000
-1384.006954 -1874.148822 -208.000000
-1382.006996 -1874.161767 -208.000000
-1380.007038 -1874.174712 -208.000000
-1378.007080 -1874.187656 -208.000000
-1376.007122 -1874.200601 -208.000000
-1374.007164 -1874.213546 -208.000000
-1372.007205 -1874.226491 -208.000000
-1370.007247 -1874.239435 -208.000000
-1368.007289 -1874.252380 -208.000000
-1366.007331 -1874.265325 -208.000000
-1364.007373 -1874.278269 -208.000000
-1362.007415 -1874.291214 -208.000000
-1360.007457 -1874.304159 -208.000000
-1358.007499 -1874.317104 -208.000000
-1356.007541 -1874.330048 -208.000000
-1354.007582 -1874.342993 -208.000000
-1352.007624 -1874.355938 -208.000000
-1350.007666 -1874.368882 -208.000000
-1348.007708 -1874.381827 -208.000000
-1346.007750 -1874.394772 -208.000000
-1344.007792 -1874.407717 -208.000000
-1342.007834 -1874.420661 -208.000000
-1340.007876 -1874.433606 -208.000000
-1338.007918 -1874.446551 -208.000000
-1336.007959 -1874.459495 -208.000000
-1334.008001 -1874.472440 -208.000000
-1332.008043 -1874.485385 -208.000000
-1330.008085 -1874.498330 -208.000000
-1328.008127 -1874.511274 -208.000000
-1326.008169 -1874.524219 -208.000000
-1324.008211 -1874.537164 -208.000000
-1322.008253 -1874.550108 -208.000000
-1320.008295 -1874.563053 -208.000000
-1318.008336 -1874.575998 -208.000000
-1316.008378 -1874.588943 -208.000000
-1314.008420 -1874.601887 -208.000000
-1312.008462 -1874.614832 -208.000000
-1310.008504 -1874.627777 -208.000000
-1308.008546 -1874.640721 -208.000000
-1306.008588 -1874.653666 -208.000000
-1304.008630 -1874.666611 -208.000000
-1302.008672 -1874.679556 -208.000000
-1300.008714 -1874.692500 -208.000000
-1298.008755 -1874.705445 -208.000000
-1296.008797 -1874.718390 -208.000000
-1294.008839 -1874.731334 -208.000000
-1292.008881 -1874.744279 -208.000000
-1290.008923 -1874.757224 -208.000000
-1288.008965 -1874.770169 -208.000000
-1286.009007 -1874.783113 -208.000000
-1284.009049 -1874.796058 -208.000000
-1282.009091 -1874.809003 -208.000000
-1280.009132 -1874.821947 -208.000000
-1278.009174 -1874.834892 -208.000000
-1276.009216 -1874.847837 -208.000000
-1274.009258 -1874.860782 -208.000000
-1272.009300 -1874.873726 -208.000000
-1270.009342 -1874.886671 -208.000000
-1268.009384 -1874.899616 -208.000000
-1266.009426 -1874.912560 -208.000000
-1264.009468 -1874.925505 -208.000000
-1262.009509 -1874.938450 -208.000000
-1260.009551 -1874.951394 -208.000000
-1258.009593 -1874.964339 -208.000000
-1256.009635 -1874.977284 -208.000000
-1254.009677 -1874.990229 -208.000000
-1252.009719 -1875.003173 -208.000000
-1250.009761 -1875.016118 -208.000000
-1248.009803 -1875.029063 -208.000000
-1246.009845 -1875.042007 -208.000000
-1244.009886 -1875.054952 -208.000000
-1242.009928 -1875.067897 -208.000000
-1240.009970 -1875.080842 -208.000000
-1238.010012 -1875.093786 -208.000000
-1236.010054 -1875.106731 -208.000000
-1234.010096 -1875.119676 -208.000000
-1232.010138 -1875.132620 -208.000000
-1230.010180 -1875.145565 -208.000000
-1228.010222 -1875.158510 -208.000000
-1226.010263 -1875.171455 -208.000000
-1224.010305 -1875.184399 -208.000000
-1222.010347 -1875.197344 -208.000000
-1220.010389 -1875.210289 -208.000000
-1218.010431 -1875.223233 -208.000000
-1216.010473 -1875.236178 -208.000000
-1214.010515 -1875.249123 -208.000000
-1212.010557 -1875.262068 -208.000000
-1210.010599 -1875.275012 -208.000000
-1208.010641 -1875.287957 -208.000000
-1206.010682 -1875.300902 -208.000000
-1204.010724 -1875.313846 -208.000000
-1202.010766 -1875.326791 -208.000000
-1200.010808 -1875.339736 -208.000000
-1198.010850 -1875.352681 -208.000000
-1196.010892 -1875.365625 -208.000000
-1194.010934 -1875.378570 -208.000000
-1192.010976 -1875.391515 -208.000000
-1190.011018 -1875.404459 -208.000000
-1188.011059 -1875.417404 -208.000000
-1186.011101 -1875.430349 -208.000000
-1184.011143 -1875.443294 -208.000000
-1182.011185 -1875.456238 -208.000000
-1180.011227 -1875.469183 -208.000000
-1178.011269 -1875.482128 -208.000000
-1176.011311 -1875.495072 -208.000000
-1174.011353 -1875.508017 -208.000000
-1172.011395 -1875.520962 -208.000000
-1170.011436 -1875.533907 -208.000000
-1168.011478 -1875.546851 -208.000000
-1166.011520 -1875.559796 -208.000000
-1164.011562 -1875.572741 -208.000000
-1162.011604 -1875.585685 -208.000000
-1160.011646 -1875.598630 -208.000000
-1158.011688 -1875.611575 -208.000000
-1156.011730 -1875.624520 -208.000000
-1154.011772 -1875.637464 -208.000000
-1152.011813 -1875.650409 -208.000000
-1150.011855 -1875.663354 -208.000000
-1148.011897 -1875.676298 -208.000000
-1146.011939 -1875.689243 -208.000000
-1144.011981 -1875.702188 -208.000000
-1142.012023 -1875.715133 -208.000000
-1140.012065 -1875.728077 -208.000000
-1138.012107 -1875.741022 -208.000000
-1136.012149 -1875.753967 -208.000000
-1134.012191 -1875.766911 -208.000000
-1132.012232 -1875.779856 -208.000000
-1130.012274 -1875.792801 -208.000000
-1128.012316 -1875.805746 -208.000000
-1126.012358 -1875.818690 -208.000000
-1124.012400 -1875.831635 -208.000000
-1122.012442 -1875.844580 -208.000000
-1120.012484 -1875.857524 -208.000000
-1118.012526 -1875.870469 -208.000000
-1116.012568 -1875.883414 -208.000000
-1114.012609 -1875.896359 -208.000000
-1112.012651 -1875.909303 -208.000000
-1110.012693 -1875.922248 -208.000000
-1108.012735 -1875.935193 -208.000000
-1106.012777 -1875.948137 -208.000000
-1104.012819 -1875.961082 -208.000000
-1102.012861 -1875.974027 -208.000000
-1100.012903 -1875.986972 -208.000000
-1098.012945 -1875.999916 -208.000000
-1096.012986 -1876.012861 -208.000000
-1094.013028 -1876.025806 -208.000000
-1092.013070 -1876.038750 -208.000000
-1090.013112 -1876.051695 -208.000000
-1088.013154 -1876.064640 -208.000000
-1086.013196 -1876.077584 -208.000000
-1084.013238 -1876.090529 -208.000000
-1082.013280 -1876.103474 -208.000000
-1080.013322 -1876.116419 -208.000000
-1078.013363 -1876.129363 -208.000000
-1076.013405 -1876.142308 -208.000000
-1074.013447 -1876.155253 -208.000000
-1072.013489 -1876.168197 -208.000000
-1070.013531 -1876.181142 -208.000000
-1068.013573 -1876.194087 -208.000000
-1066.013615 -1876.207032 -208.000000
-1064.013657 -1876.219976 -208.000000
-1062.013699 -1876.232921 -208.000000
-1060.013741 -1876.245866 -208.000000
-1058.013782 -1876.258810 -208.000000
-1056.013824 -1876.271755 -208.000000
-1054.013866 -1876.284700 -208.000000
-1052.013908 -1876.297645 -208.000000
-1050.013950 -1876.310589 -208.000000
-1048.013992 -1876.323534 -208.000000
-1046.014034 -1876.336479 -208.000000
-1044.014076 -1876.349423 -208.000000
-1042.014118 -1876.362368 -208.000000
-1040.014159 -1876.375313 -208.000000
-1038.014201 -1876.388258 -208.000000
-1036.014243 -1876.401202 -208.000000
-1034.014285 -1876.414147 -208.000000
-1032.014327 -1876.427092 -208.000000
-1030.014369 -1876.440036 -208.000000
-1028.014411 -1876.452981 -208.000000
-1026.014453 -1876.465926 -208.000000
-1024.014495 -1876.478871 -208.000000
-1022.014536 -1876.491815 -208.000000
-1020.014578 -1876.504760 -208.000000
-1018.014620 -1876.517705 -208.000000
-1016.014662 -1876.530649 -208.000000
-1014.014704 -1876.543594 -208.000000
-1012.014746 -1876.556539 -208.000000
-1010.014788 -1876.569484 -208.000000
-1008.014830 -1876.582428 -208.000000
-1006.014872 -1876.595373 -208.000000
-1004.014913 -1876.608318 -208.000000
-1002.014955 -1876.621262 -208.000000
-1000.014997 -1876.634207 -208.000000
-998.015039 -1876.647152 -208.000000
-996.015081 -1876.660097 -208.000000
-994.015123 -1876.673041 -208.000000
-992.015165 -1876.685986 -208.000000
-990.015207 -1876.698931 -208.000000
-988.015249 -1876.711875 -208.000000
-986.015291 -1876.724820 -208.000000
-984.015332 -1876.737765 -208.000000
-982.015374 -1876.750710 -208.000000
-980.015416 -1876.763654 -208.000000
-978.015458 -1876.776599 -208.000000
-976.015500 -1876.789544 -208.000000
-974.015542 -1876.802488 -208.000000
-972.015584 -1876.815433 -208.000000
-970.015626 -1876.828378 -208.000000
-968.015668 -1876.841323 -208.000000
-966.015709 -1876.854267 -208.000000
-964.015751 -1876.867212 -208.000000
-962.015793 -1876.880157 -208.000000
-960.015835 -1876.893101 -208.000000
-958.015877 -1876.906046 -208.000000
-956.015919 -1876.918991 -208.000000
-954.015961 -1876.931936 -208.000000
-952.016003 -1876.944880 -208.000000
-950.016045 -1876.957825 -208.000000
-948.016086 -1876.970770 -208.000000
-946.016128 -1876.983714 -208.000000
-944.016170 -1876.996659 -208.000000
-942.016212 -1877.009604 -208.000000
-940.016254 -1877.022549 -208.000000
-938.016296 -1877.035493 -208.000000
-936.016338 -1877.048438 -208.000000
-934.016380 -1877.061383 -208.000000
-932.016422 -1877.074327 -208.000000
-930.016463 -1877.087272 -208.000000
-928.016505 -1877.100217 -208.000000
-926.016547 -1877.113162 -208.000000
-924.016589 -1877.126106 -208.000000
-922.016631 -1877.139051 -208.000000
-920.016673 -1877.151996 -208.000000
-918.016715 -1877.164940 -208.000000
-916.016757 -1877.177885 -208.000000
-914.016799 -1877.190830 -208.000000
-912.016841 -1877.203774 -208.000000
-910.016882 -1877.216719 -208.000000
-908.016924 -1877.229664 -208.000000
-906.016966 -1877.242609 -208.000000
-904.017008 -1877.255553 -208.000000
-902.017050 -1877.268498 -208.000000
-900.017092 -1877.281443 -208.000000
-898.017134 -1877.294387 -208.000000
-896.017176 -1877.307332 -208.000000
-894.017218 -1877.320277 -208.000000
-892.017259 -1877.333222 -208.000000
-890.017301 -1877.346166 -208.000000
-888.017343 -1877.359111 -208.000000
-886.017385 -1877.372056 -208.000000
-884.017427 -1877.385000 -208.000000
-882.017469 -1877.397945 -208.000000
-880.017511 -1877.410890 -208.000000
-878.017553 -1877.423835 -208.000000
-876.017595 -1877.436779 -208.000000
-874.017636 -1877.449724 -208.000000
-872.017678 -1877.462669 -208.000000
-870.017720 -1877.475613 -208.000000
-868.017762 -1877.488558 -208.000000
-866.017804 -1877.501503 -208.000000
-864.017846 -1877.514448 -208.000000
-862.017888 -1877.527392 -208.000000
-860.017930 -1877.540337 -208.000000
-858.017972 -1877.553282 -208.000000
-856.018013 -1877.566226 -208.000000
-854.018055 -1877.579171 -208.000000
-852.018097 -1877.592116 -208.000000
-850.018139 -1877.605061 -208.000000
-848.018181 -1877.618005 -208.000000
-846.018223 -1877.630950 -208.000000
-844.018265 -1877.643895 -208.000000
-842.018307 -1877.656839 -208.000000
-840.018349 -1877.669784 -208.000000
-838.018391 -1877.682729 -208.000000
-836.018432 -1877.695674 -208.000000
-834.018474 -1877.708618 -208.000000
-832.018516 -1877.721563 -208.000000
-830.018558 -1877.734508 -208.000000
-828.018600 -1877.747452 -208.000000
-826.018642 -1877.760397 -208.000000
-824.018684 -1877.773342 -208.000000
-822.018726 -1877.786287 -208.000000
-820.018768 -1877.799231 -208.000000
-818.018809 -1877.812176 -208.000000
-816.018851 -1877.825121 -208.000000
-814.018893 -1877.838065 -208.000000
-812.018935 -1877.851010 -208.000000
-810.018977 -1877.863955 -208.000000
-808.019019 -1877.876900 -208.000000
-806.019061 -1877.889844 -208.000000
-804.019103 -1877.902789 -208.000000
-802.019145 -1877.915734 -208.000000
-800.019186 -1877.928678 -208.000000
-798.019228 -1877.941623 -208.000000
-796.019270 -1877.954568 -208.000000
-794.019312 -1877.967513 -208.000000
-792.019354 -1877.980457 -208.000000
-790.019396 -1877.993402 -208.000000
-788.019438 -1878.006347 -208.000000
-786.019480 -1878.019291 -208.000000
-784.019522 -1878.032236 -208.000000
-782.019563 -1878.045181 -208.000000
-780.019605 -1878.058126 -208.000000
-778.019647 -1878.071070 -208.000000
-776.019689 -1878.084015 -208.000000
-774.019731 -1878.096960 -208.000000
-772.019773 -1878.109904 -208.000000
-770.019815 -1878.122849 -208.000000
-768.019857 -1878.135794 -208.000000
-766.019899 -1878.148739 -208.000000
-764.019941 -1878.161683 -208.000000
-762.019982 -1878.174628 -208.000000
-760.020024 -1878.187573 -208.000000
-758.020066 -1878.200517 -208.000000
-756.020108 -1878.213462 -208.000000
-754.020150 -1878.226407 -208.000000
-752.020192 -1878.239352 -208.000000
-750.020234 -1878.252296 -208.000000
-748.020276 -1878.265241 -208.000000
-746.020318 -1878.278186 -208.000000
-744.020359 -1878.291130 -208.000000
-742.020401 -1878.304075 -208.000000
-740.020443 -1878.317020 -208.000000
-738.020485 -1878.329964 -208.000000
-736.020527 -1878.342909 -208.000000
-734.020569 -1878.355854 -208.000000
-732.020611 -1878.368799 -208.000000
-730.020653 -1878.381743 -208.000000
-728.020695 -1878.394688 -208.000000
-726.020736 -1878.407633 -208.000000
-724.020778 -1878.420577 -208.000000
-722.020820 -1878.433522 -208.000000
-720.020862 -1878.446467 -208.000000
-718.020904 -1878.459412 -208.000000
-716.020946 -1878.472356 -208.000000
-714.020988 -1878.485301 -208.000000
-712.021030 -1878.498246 -208.000000
-710.021072 -1878.511190 -208.000000
-708.021113 -1878.524135 -208.000000
-706.021155 -1878.537080 -208.000000
-704.021197 -1878.550025 -208.000000
-702.021239 -1878.562969 -208.000000
-700.021281 -1878.575914 -208.000000
-698.021323 -1878.588859 -208.000000
-696.021365 -1878.601803 -208.000000
-694.021407 -1878.614748 -208.000000
-692.021449 -1878.627693 -208.000000
-690.021491 -1878.640638 -208.000000
-688.021532 -1878.653582 -208.000000
-686.021574 -1878.666527 -208.000000
-684.021616 -1878.679472 -208.000000
-682.021658 -1878.692416 -208.000000
-680.021700 -1878.705361 -208.000000
-678.021742 -1878.718306 -208.000000
-676.021784 -1878.731251 -208.000000
-674.021826 -1878.744195 -208.000000
-672.021868 -1878.757140 -208.000000
-670.021909 -1878.770085 -208.000000
-668.021951 -1878.783029 -208.000000
-666.021993 -1878.795974 -208.000000
-664.022035 -1878.808919 -208.000000
-662.022077 -1878.821864 -208.000000
-660.022119 -1878.834808 -208.000000
-658.022161 -1878.847753 -208.000000
-656.022203 -1878.860698 -208.000000
-654.022245 -1878.873642 -208.000000
-652.022286 -1878.886587 -208.000000
-650.022328 -1878.899532 -208.000000
-648.022370 -1878.912477 -208.000000
-646.022412 -1878.925421 -208.000000
-644.022454 -1878.938366 -208.000000
-642.022496 -1878.951311 -208.000000
-640.022538 -1878.964255 -208.000000
-638.022580 -1878.977200 -208.000000
-636.022622 -1878.990145 -208.000000
-634.022663 -1879.003090 -208.000000
-632.022705 -1879.016034 -208.000000
-630.022747 -1879.028979 -208.000000
-628.022789 -1879.041924 -208.000000
-626.022831 -1879.054868 -208.000000
-624.022873 -1879.067813 -208.000000
-622.022915 -1879.080758 -208.000000
-620.022957 -1879.093703 -208.000000
-618.022999 -1879.106647 -208.000000
-616.023041 -1879.119592 -208.000000
-614.023082 -1879.132537 -208.000000
-612.023124 -1879.145481 -208.000000
-610.023166 -1879.158426 -208.000000
-608.023208 -1879.171371 -208.000000
-606.023250 -1879.184316 -208.000000
-604.023292 -1879.197260 -208.000000
-602.023334 -1879.210205 -208.000000
-600.023376 -1879.223150 -208.000000
-598.023418 -1879.236094 -208.000000
-596.023459 -1879.249039 -208.000000
-594.023501 -1879.261984 -208.000000
-592.023543 -1879.274929 -208.000000
-590.023585 -1879.287873 -208.000000
-588.023627 -1879.300818 -208.000000
-586.023669 -1879.313763 -208.000000
-584.023711 -1879.326707 -208.000000
-582.023753 -1879.339652 -208.000000
-580.023795 -1879.352597 -208.000000
-578.023836 -1879.365542 -208.000000
-576.023878 -1879.378486 -208.000000
-574.023920 -1879.391431 -208.000000
-572.023962 -1879.404376 -208.000000
-570.024004 -1879.417320 -208.000000
-568.024046 -1879.430265 -208.000000
-566.024088 -1879.443210 -208.000000
-564.024130 -1879.456155 -208.000000
-562.024172 -1879.469099 -208.000000
-560.024213 -1879.482044 -208.000000
-558.024255 -1879.494989 -208.000000
-556.024297 -1879.507933 -208.000000
-554.024339 -1879.520878 -208.000000
-552.024381 -1879.533823 -208.000000
-550.024423 -1879.546767 -208.000000
-548.024465 -1879.559712 -208.000000
-546.024507 -1879.572657 -208.000000
-544.024549 -1879.585602 -208.000000
-542.024591 -1879.598546 -208.000000
-540.024632 -1879.611491 -208.000000
-538.024674 -1879.624436 -208.000000
-536.024716 -1879.637380 -208.000000
-534.024758 -1879.650325 -208.000000
-532.024800 -1879.663270 -208.000000
-530.024842 -1879.676215 -208.000000
-528.024884 -1879.689159 -208.000000
-526.024926 -1879.702104 -208.000000
-524.024968 -1879.715049 -208.000000
-522.025009 -1879.727993 -208.000000
-520.025051 -1879.740938 -208.000000
-518.025093 -1879.753883 -208.000000
-516.025135 -1879.766828 -208.000000
-514.025177 -1879.779772 -208.000000
-512.025219 -1879.792717 -208.000000
-510.025261 -1879.805662 -208.000000
-508.025303 -1879.818606 -208.000000
-506.025345 -1879.831551 -208.000000
-504.025386 -1879.844496 -208.000000
-502.025428 -1879.857441 -208.000000
-500.025470 -1879.870385 -208.000000
-498.025512 -1879.883330 -208.000000
-496.025554 -1879.896275 -208.000000
-494.025596 -1879.909219 -208.000000
-492.025638 -1879.922164 -208.000000
-490.025680 -1879.935109 -208.000000
-488.025722 -1879.948054 -208.000000
-486.025763 -1879.960998 -208.000000
-484.025805 -1879.973943 -208.000000
-482.025847 -1879.986888 -208.000000
-480.000000 -1880.000000 -208.000000
-480.000000 -1881.971981 -207.666394
-480.000000 -1883.943961 -207.332789
-480.000000 -1885.915942 -206.999183
-480.000000 -1887.887922 -206.665577
-480.000000 -1889.859903 -206.331971
-480.000000 -1891.831883 -205.998366
-480.000000 -1893.803864 -205.664760
-480.000000 -1895.775844 -205.331154
-480.000000 -1897.747825 -204.997548
-480.000000 -1899.719805 -204.663943
-480.000000 -1901.691786 -204.330337
-480.000000 -1903.663766 -203.996731
-480.000000 -1905.635747 -203.663126
-480.000000 -1907.607727 -203.329520
-480.000000 -1909.579708 -202.995914
-480.000000 -1911.551689 -202.662308
-480.000000 -1913.523669 -202.328703
-480.000000 -1915.495650 -201.995097
-480.000000 -1917.467630 -201.661491
-480.000000 -1919.439611 -201.327885
-480.000000 -1921.411591 -200.994280
-480.000000 -1923.383572 -200.660674
-480.000000 -1925.355552 -200.327068
-480.000000 -1927.327533 -199.993463
-480.000000 -1929.299513 -199.659857
-480.000000 -1931.271494 -199.326251
-480.000000 -1933.243474 -198.992645
-480.000000 -1935.215455 -198.659040
-480.000000 -1937.187435 -198.325434
-480.000000 -1939.159416 -197.991828
-480.000000 -1941.131396 -197.658222
-480.000000 -1943.103377 -197.324617
-480.000000 -1945.075358 -196.991011
-480.000000 -1947.047338 -196.657405
-480.000000 -1949.019319 -196.323799
-480.000000 -1950.991299 -195.990194
-480.000000 -1952.963280 -195.656588
-480.000000 -1954.935260 -195.322982
-480.000000 -1956.907241 -194.989377
-480.000000 -1958.879221 -194.655771
-480.000000 -1960.851202 -194.322165
-480.000000 -1962.823182 -193.988559
-480.000000 -1964.795163 -193.654954
-480.000000 -1966.767143 -193.321348
-480.000000 -1968.739124 -192.987742
-480.000000 -1970.711104 -192.654136
-480.000000 -1972.683085 -192.320531
-480.000000 -1974.655066 -191.986925
-480.000000 -1976.627046 -191.653319
-480.000000 -1978.599027 -191.319714
-480.000000 -1980.571007 -190.986108
-480.000000 -1982.542988 -190.652502
-480.000000 -1984.514968 -190.318896
-480.000000 -1986.486949 -189.985291
-480.000000 -1988.458929 -189.651685
-480.000000 -1990.430910 -189.318079
-480.000000 -1992.402890 -188.984473
-480.000000 -1994.374871 -188.650868
-480.000000 -1996.346851 -188.317262
-480.000000 -1998.318832 -187.983656
-480.000000 -2000.290812 -187.650051
-480.000000 -2002.262793 -187.316445
-480.000000 -2004.234773 -186.982839
-480.000000 -2006.206754 -186.649233
-480.000000 -2008.178735 -186.315628
-480.000000 -2010.150715 -185.982022
-480.000000 -2012.122696 -185.648416
-480.000000 -2014.094676 -185.314810
-480.000000 -2016.066657 -184.981205
-480.000000 -2018.038637 -184.647599
-480.000000 -2020.010618 -184.313993
-480.000000 -2021.982598 -183.980388
-480.000000 -2023.954579 -183.646782
-480.000000 -2025.926559 -183.313176
-480.000000 -2027.898540 -182.979570
-480.000000 -2029.870520 -182.645965
-480.000000 -2031.842501 -182.312359
-480.000000 -2033.814481 -181.978753
-480.000000 -2035.786462 -181.645147
-480.000000 -2037.758443 -181.311542
-480.000000 -2039.730423 -180.977936
-480.000000 -2041.702404 -180.644330
-480.000000 -2043.674384 -180.310724
-480.000000 -2045.646365 -179.977119
-480.000000 -2047.618345 -179.643513
-480.000000 -2049.590326 -179.309907
-480.000000 -2051.562306 -178.976302
-480.000000 -2053.534287 -178.642696
-480.000000 -2055.506267 -178.309090
-480.000000 -2057.478248 -177.975484
-480.000000 -2059.450228 -177.641879
-480.000000 -2061.422209 -177.308273
-480.000000 -2063.394189 -176.974667
-480.000000 -2065.366170 -176.641061
-480.000000 -2067.338151 -176.307456
-480.000000 -2069.310131 -175.973850
-480.000000 -2071.282112 -175.640244
-480.000000 -2073.254092 -175.306639
-480.000000 -2075.226073 -174.973033
-480.000000 -2077.198053 -174.639427
-480.000000 -2079.170034 -174.305821
-480.000000 -2081.142014 -173.972216
-480.000000 -2083.113995 -173.638610
-480.000000 -2085.085975 -173.305004
-480.000000 -2087.057956 -172.971398
-480.000000 -2089.029936 -172.637793
-480.000000 -2091.001917 -172.304187
-480.000000 -2092.973897 -171.970581
-480.000000 -2094.945878 -171.636976
-480.000000 -2096.917858 -171.303370
-480.000000 -2098.889839 -170.969764
-480.000000 -2100.861820 -170.636158
-480.000000 -2102.833800 -170.302553
-480.000000 -2104.805781 -169.968947
-480.000000 -2106.777761 -169.635341
-480.000000 -2108.749742 -169.301735
-480.000000 -2110.721722 -168.968130
-480.000000 -2112.693703 -168.634524
-480.000000 -2114.665683 -168.300918
-480.000000 -2116.637664 -167.967313
-480.000000 -2118.609644 -167.633707
-480.000000 -2120.581625 -167.300101
-480.000000 -2122.553605 -166.966495
-480.000000 -2124.525586 -166.632890
-480.000000 -2126.497566 -166.299284
-480.000000 -2128.469547 -165.965678
-480.000000 -2130.441528 -165.632072
-480.000000 -2132.413508 -165.298467
-480.000000 -2134.385489 -164.964861
-480.000000 -2136.357469 -164.631255
-480.000000 -2138.329450 -164.297649
-480.000000 -2140.301430 -163.964044
-480.000000 -2142.273411 -163.630438
-480.000000 -2144.245391 -163.296832
-480.000000 -2146.217372 -162.963227
-480.000000 -2148.189352 -162.629621
-480.000000 -2150.161333 -162.296015
-480.000000 -2152.133313 -161.962409
-480.000000 -2154.105294 -161.628804
-480.000000 -2156.077274 -161.295198
-480.000000 -2158.049255 -160.961592
-480.000000 -2160.021236 -160.627986
-480.000000 -2161.993216 -160.294381
-480.000000 -2163.965197 -159.960775
-480.000000 -2165.937177 -159.627169
-480.000000 -2167.909158 -159.293564
-480.000000 -2169.881138 -158.959958
-480.000000 -2171.853119 -158.626352
-480.000000 -2173.825099 -158.292746
-480.000000 -2175.797080 -157.959141
-480.000000 -2177.769060 -157.625535
-480.000000 -2179.741041 -157.291929
-480.000000 -2181.713021 -156.958323
-480.000000 -2183.685002 -156.624718
-480.000000 -2185.656982 -156.291112
-480.000000 -2187.628963 -155.957506
-480.000000 -2189.600943 -155.623901
-480.000000 -2191.572924 -155.290295
-480.000000 -2193.544905 -154.956689
-480.000000 -2195.516885 -154.623083
-480.000000 -2197.488866 -154.289478
-480.000000 -2199.460846 -153.955872
-480.000000 -2201.432827 -153.622266
-480.000000 -2203.404807 -153.288660
-480.000000 -2205.376788 -152.955055
-480.000000 -2207.348768 -152.621449
-480.000000 -2209.320749 -152.287843
-480.000000 -2211.292729 -151.954238
-480.000000 -2213.264710 -151.620632
-480.000000 -2215.236690 -151.287026
-480.000000 -2217.208671 -150.953420
-480.000000 -2219.180651 -150.619815
-480.000000 -2221.152632 -150.286209
-480.000000 -2223.124613 -149.952603
-480.000000 -2225.096593 -149.618997
-480.000000 -2227.068574 -149.285392
-480.000000 -2229.040554 -148.951786
-480.000000 -2231.012535 -148.618180
-480.000000 -2232.984515 -148.284574
-480.000000 -2234.956496 -147.950969
-480.000000 -2236.928476 -147.617363
-480.000000 -2238.900457 -147.283757
-480.000000 -2240.872437 -146.950152
-480.000000 -2242.844418 -146.616546
-480.000000 -2244.816398 -146.282940
-480.000000 -2246.788379 -145.949334
-480.000000 -2248.760359 -145.615729
-480.000000 -2250.732340 -145.282123
-480.000000 -2252.704320 -144.948517
-480.000000 -2254.676301 -144.614911
-480.000000 -2256.648282 -144.281306
-480.000000 -2258.620262 -143.947700
-480.000000 -2260.592243 -143.614094
-480.000000 -2262.564223 -143.280489
-480.000000 -2264.536204 -142.946883
-480.000000 -2266.508184 -142.613277
-480.000000 -2268.480165 -142.279671
-480.000000 -2270.452145 -141.946066
-480.000000 -2272.424126 -141.612460
-480.000000 -2274.396106 -141.278854
-480.000000 -2276.368087 -140.945248
-480.000000 -2278.340067 -140.611643
-480.000000 -2280.312048 -140.278037
-480.000000 -2282.284028 -139.944431
-480.000000 -2284.256009 -139.610826
-480.000000 -2286.227990 -139.277220
-480.000000 -2288.199970 -138.943614
-480.000000 -2290.171951 -138.610008
-480.000000 -2292.143931 -138.276403
-480.000000 -2294.115912 -137.942797
-480.000000 -2296.087892 -137.609191
-480.000000 -2298.059873 -137.275585
-480.000000 -2300.031853 -136.941980
-480.000000 -2302.003834 -136.608374
-480.000000 -2303.975814 -136.274768
-480.000000 -2305.947795 -135.941163
-480.000000 -2307.919775 -135.607557
-480.000000 -2309.891756 -135.273951
-480.000000 -2311.863736 -134.940345
-480.000000 -2313.835717 -134.606740
-480.000000 -2315.807698 -134.273134
-480.000000 -2317.779678 -133.939528
-480.000000 -2319.751659 -133.605922
-480.000000 -2321.723639 -133.272317
-480.000000 -2323.695620 -132.938711
-480.000000 -2325.667600 -132.605105
-480.000000 -2327.639581 -132.271500
-480.000000 -2329.611561 -131.937894
-480.000000 -2331.583542 -131.604288
-480.000000 -2333.555522 -131.270682
-480.000000 -2335.527503 -130.937077
-480.000000 -2337.499483 -130.603471
-480.000000 -2339.471464 -130.269865
-480.000000 -2341.443444 -129.936259
-480.000000 -2343.415425 -129.602654
-480.000000 -2345.387405 -129.269048
-480.000000 -2347.359386 -128.935442
-480.000000 -2349.331367 -128.601836
-480.000000 -2351.303347 -128.268231
-480.000000 -2353.275328 -127.934625
-480.000000 -2355.247308 -127.601019
-480.000000 -2357.219289 -127.267414
-480.000000 -2359.191269 -126.933808
-480.000000 -2361.163250 -126.600202
-480.000000 -2363.135230 -126.266596
-480.000000 -2365.107211 -125.932991
-480.000000 -2367.079191 -125.599385
-480.000000 -2369.051172 -125.265779
-480.000000 -2371.023152 -124.932173
-480.000000 -2372.995133 -124.598568
-480.000000 -2374.967113 -124.264962
-480.000000 -2376.939094 -123.931356
-480.000000 -2378.911075 -123.597751
-480.000000 -2380.883055 -123.264145
-480.000000 -2382.855036 -122.930539
-480.000000 -2384.827016 -122.596933
-480.000000 -2386.798997 -122.263328
-480.000000 -2388.770977 -121.929722
-480.000000 -2390.742958 -121.596116
-480.000000 -2392.714938 -121.262510
-480.000000 -2394.686919 -120.928905
-480.000000 -2396.658899 -120.595299
-480.000000 -2398.630880 -120.261693
-480.000000 -2400.602860 -119.928088
-480.000000 -2402.574841 -119.594482
-480.000000 -2404.546821 -119.260876
-480.000000 -2406.518802 -118.927270
-480.000000 -2408.490783 -118.593665
-480.000000 -2410.462763 -118.260059
-480.000000 -2412.434744 -117.926453
-480.000000 -2414.406724 -117.592847
-480.000000 -2416.378705 -117.259242
-480.000000 -2418.350685 -116.925636
-480.000000 -2420.322666 -116.592030
-480.000000 -2422.294646 -116.258425
-480.000000 -2424.266627 -115.924819
-480.000000 -2426.238607 -115.591213
-480.000000 -2428.210588 -115.257607
-480.000000 -2430.182568 -114.924002
-480.000000 -2432.154549 -114.590396
-480.000000 -2434.126529 -114.256790
-480.000000 -2436.098510 -113.923184
-480.000000 -2438.070490 -113.589579
-480.000000 -2440.042471 -113.255973
-480.000000 -2442.014452 -112.922367
-480.000000 -2443.986432 -112.588761
-480.000000 -2445.958413 -112.255156
-480.000000 -2447.930393 -111.921550
-480.000000 -2449.902374 -111.587944
-480.000000 -2451.874354 -111.254339
-480.000000 -2453.846335 -110.920733
-480.000000 -2455.818315 -110.587127
-480.000000 -2457.790296 -110.253521
-480.000000 -2459.762276 -109.919916
-480.000000 -2461.734257 -109.586310
-480.000000 -2463.706237 -109.252704
-480.000000 -2465.678218 -108.919098
-480.000000 -2467.650198 -108.585493
-480.000000 -2469.622179 -108.251887
-480.000000 -2471.594160 -107.918281
-480.000000 -2473.566140 -107.584676
-480.000000 -2475.538121 -107.251070
-480.000000 -2477.510101 -106.917464
-480.000000 -2479.482082 -106.583858
-480.000000 -2481.454062 -106.250253
-480.000000 -2483.426043 -105.916647
-480.000000 -2485.398023 -105.583041
-480.000000 -2487.370004 -105.249435
-480.000000 -2489.341984 -104.915830
-480.000000 -2491.313965 -104.582224
-480.000000 -2493.285945 -104.248618
-480.000000 -2495.257926 -103.915013
-480.000000 -2497.229906 -103.581407
-480.000000 -2499.201887 -103.247801
-480.000000 -2501.173867 -102.914195
-480.000000 -2503.145848 -102.580590
-480.000000 -2505.117829 -102.246984
-480.000000 -2507.089809 -101.913378
-480.000000 -2509.061790 -101.579772
-480.000000 -2511.033770 -101.246167
-480.000000 -2513.005751 -100.912561
-480.000000 -2514.977731 -100.578955
-480.000000 -2516.949712 -100.245350
-480.000000 -2518.921692 -99.911744
-480.000000 -2520.893673 -99.578138
-480.000000 -2522.865653 -99.244532
-480.000000 -2524.837634 -98.910927
-480.000000 -2526.809614 -98.577321
-480.000000 -2528.781595 -98.243715
-480.000000 -2530.753575 -97.910109
-480.000000 -2532.725556 -97.576504
-480.000000 -2534.697537 -97.242898
-480.000000 -2536.669517 -96.909292
-480.000000 -2538.641498 -96.575686
-480.000000 -2540.613478 -96.242081
-480.000000 -2542.585459 -95.908475
-480.000000 -2544.557439 -95.574869
-480.000000 -2546.529420 -95.241264
-480.000000 -2548.501400 -94.907658
-480.000000 -2550.473381 -94.574052
-480.000000 -2552.445361 -94.240446
-480.000000 -2554.417342 -93.906841
-480.000000 -2556.389322 -93.573235
-480.000000 -2558.361303 -93.239629
-480.000000 -2560.333283 -92.906023
-480.000000 -2562.305264 -92.572418
-480.000000 -2564.277245 -92.238812
-480.000000 -2566.249225 -91.905206
-480.000000 -2568.221206 -91.571601
-480.000000 -2570.193186 -91.237995
-480.000000 -2572.165167 -90.904389
-480.000000 -2574.137147 -90.570783
-480.000000 -2576.109128 -90.237178
-480.000000 -2578.081108 -89.903572
-480.000000 -2580.053089 -89.569966
-480.000000 -2582.025069 -89.236360
-480.000000 -2583.997050 -88.902755
-480.000000 -2585.969030 -88.569149
-480.000000 -2587.941011 -88.235543
-480.000000 -2589.912991 -87.901938
-480.000000 -2591.884972 -87.568332
-480.000000 -2593.856952 -87.234726
-480.000000 -2595.828933 -86.901120
-480.000000 -2597.800914 -86.567515
-480.000000 -2599.772894 -86.233909
-480.000000 -2601.744875 -85.900303
-480.000000 -2603.716855 -85.566697
-480.000000 -2605.688836 -85.233092
-480.000000 -2607.660816 -84.899486
-480.000000 -2609.632797 -84.565880
-480.000000 -2611.604777 -84.232275
-480.000000 -2613.576758 -83.898669
-480.000000 -2615.548738 -83.565063
-480.000000 -2617.520719 -83.231457
-480.000000 -2619.492699 -82.897852
-480.000000 -2621.464680 -82.564246
-480.000000 -2623.436660 -82.230640
-480.000000 -2625.408641 -81.897034
-480.000000 -2627.380622 -81.563429
-480.000000 -2629.352602 -81.229823
-480.000000 -2631.324583 -80.896217
-480.000000 -2633.296563 -80.562612
-480.000000 -2635.268544 -80.229006
-480.000000 -2637.240524 -79.895400
-480.000000 -2640.000000 -79.428571
-480.000000 -2641.985533 -79.668696
-480.000000 -2643.971065 -79.908821
